# .PCD v0.7 - Point Cloud Data file format
VERSION 0.7
FIELDS x y z
SIZE 4 4 4
TYPE F F F
COUNT 1 1 1
WIDTH 1504
HEIGHT 1
VIEWPOINT 0 0 0 1 0 0 0
POINTS 1504
DATA ascii
35.393627 -89.699333 -0.33866304
31.674425 -76.947609 -0.67421454
24.983236 -55.05344 -1.5796362
25.325991 -55.569534 -1.3588166
23.428185 -49.136822 -1.5514182
21.750889 -43.499737 -1.7354684
20.415907 -39.002792 -1.8790864
19.435286 -35.657158 -1.9722954
18.601807 -32.809681 -2.0504081
12.55821 -14.649551 -3.3335302
17.11167 -27.77952 -2.2076004
15.90252 -23.990927 -2.4195859
15.656109 -23.02565 -2.4071162
14.810438 -20.379599 -2.5564284
13.602179 -16.76597 -2.8178608
13.188951 -15.426228 -2.8773603
13.160689 -15.168283 -2.8334944
13.146069 -14.948377 -2.7858944
13.1491 -14.774495 -2.7325435
21.783125 -52.0784 -4.3720875
63.725399 -182.26907 2.8512163
50.018734 -136.44997 1.4457264
35.761482 -89.752258 -0.29691899
32.012959 -77.061417 -0.6345222
25.234623 -55.156181 -1.549468
25.663151 -55.929852 -1.3132375
23.625055 -49.139721 -1.5289208
21.921095 -43.487083 -1.7163126
12.359252 -14.349547 -3.5214987
12.496161 -14.60094 -3.4472888
12.543369 -14.581413 -3.3906941
17.902643 -30.043884 -2.1254449
17.246517 -27.839012 -2.1893332
16.004387 -23.997236 -2.4072864
13.78394 -17.456263 -2.8922369
13.499037 -16.465307 -2.9102166
13.013548 -14.93417 -2.9867895
13.339039 -15.65498 -2.8462183
13.243478 -15.214364 -2.820677
13.262155 -15.085621 -2.7629654
13.22611 -14.808033 -2.7208369
21.834093 -51.56414 -4.3542452
63.787384 -180.32913 2.8456459
36.107342 -89.795097 -0.25774428
32.296913 -77.053818 -0.60273552
25.473274 -55.253681 -1.5208112
25.951239 -56.168533 -1.2756861
23.805401 -49.124527 -1.5087123
22.077923 -43.462788 -1.6989739
12.512936 -14.631068 -3.4956405
19.711498 -35.643372 -1.9407836
18.866703 -32.824688 -2.0190895
18.115017 -30.321209 -2.0901086
17.33049 -27.7696 -2.1823053
16.10553 -24.016531 -2.394491
15.607723 -22.36685 -2.4439602
14.951259 -20.306955 -2.5432897
13.490447 -16.075136 -2.8683407
13.431129 -15.731296 -2.8307536
13.336124 -15.295732 -2.8045168
13.311266 -15.051298 -2.7591648
13.278571 -14.785507 -2.7159162
63.879116 -178.646 2.8450317
36.428997 -89.82074 -0.22146642
32.569366 -77.061546 -0.57200044
26.227699 -56.960129 -1.4057031
26.077793 -55.950455 -1.2657599
23.975534 -49.110867 -1.4896163
22.234167 -43.465424 -1.6809853
20.838087 -38.933231 -1.8324975
19.84058 -35.6446 -1.9257957
18.988855 -32.833553 -2.0045536
12.7442 -14.666055 -3.3111584
12.750512 -14.526163 -3.2625537
16.256247 -24.189552 -2.3690629
15.578389 -22.054377 -2.4621773
15.055118 -20.382711 -2.527061
13.104871 -14.858682 -2.9798696
13.317481 -15.26228 -2.8711953
13.354138 -15.186123 -2.8089402
13.352434 -15.006088 -2.7570195
13.329737 -14.769188 -2.710727
63.937771 -176.77303 2.8395505
36.777855 -89.86834 -0.18187888
32.857819 -77.06546 -0.53951746
26.417639 -56.887138 -1.3855215
26.298725 -55.981327 -1.2400424
24.16024 -49.107864 -1.4686081
22.395271 -43.453312 -1.662823
20.999035 -38.968266 -1.8129164
12.717837 -14.731969 -3.4174349
12.767172 -14.717616 -3.3598952
18.312536 -30.234739 -2.0702567
17.557329 -27.816401 -2.153697
16.391291 -24.299885 -2.3482299
15.9377 -22.800827 -2.3842688
15.186006 -20.51721 -2.5046401
13.161792 -14.847125 -2.9736404
13.417562 -15.361839 -2.8534198
13.403385 -15.151161 -2.8050573
13.423007 -15.028761 -2.7469366
13.377611 -14.735118 -2.7071278
64.006615 -174.85442 2.8349197
37.122108 -89.839058 -0.14370683
33.170929 -77.090973 -0.5039233
26.68618 -57.011688 -1.3529863
26.490189 -55.886806 -1.2202079
24.350849 -49.089115 -1.4472694
22.569893 -43.451508 -1.6428219
12.690087 -14.622223 -3.4754701
20.090469 -35.552967 -1.8997395
19.212326 -32.727394 -1.9821981
18.48613 -30.372419 -2.0447052
17.639954 -27.726564 -2.1476288
16.539127 -24.427069 -2.3251326
16.053415 -22.855114 -2.3679297
15.037429 -19.883574 -2.5542672
13.386594 -15.273321 -2.9237642
13.412999 -15.173289 -2.8646934
13.407063 -14.988022 -2.814435
13.448508 -14.924753 -2.7504382
13.437451 -14.722796 -2.7005787
64.060127 -173.1606 2.8300409
37.490105 -89.999115 -0.10061096
33.446194 -77.103119 -0.47277829
26.914566 -57.088825 -1.3258115
26.57432 -55.551895 -1.2174448
24.536501 -49.119129 -1.4253607
22.733053 -43.472099 -1.6235424
21.255098 -38.847424 -1.786859
20.250685 -35.641197 -1.8783343
19.350178 -32.779594 -1.9643087
18.596251 -30.369492 -2.0318971
12.969405 -14.633388 -3.2323804
16.618927 -24.397295 -2.3169732
15.910255 -22.239939 -2.4139144
15.20817 -20.138407 -2.5210042
13.468431 -15.33296 -2.9107084
13.362324 -14.886676 -2.8871124
13.423042 -14.878382 -2.8190801
13.46661 -14.822151 -2.7547455
13.483911 -14.694796 -2.6967237
64.132019 -171.32861 2.8263276
37.830624 -89.954964 -0.063008517
33.757793 -77.120514 -0.43744922
26.578705 -55.441101 -1.3925736
26.781637 -55.508137 -1.1947535
24.736181 -49.125103 -1.4023936
22.901186 -43.450321 -1.6047858
21.453762 -38.961823 -1.7605952
12.937816 -14.828152 -3.3888414
12.953216 -14.719137 -3.3381341
12.976805 -14.631183 -3.2852015
17.848337 -27.702717 -2.1240077
16.786253 -24.572479 -2.2894404
15.205538 -20.112822 -2.5979197
13.321871 -14.935202 -3.0083318
13.349205 -14.846398 -2.9510813
13.400045 -14.815387 -2.8865707
13.481124 -14.859874 -2.8130996
13.542444 -14.849412 -2.7436965
13.545803 -14.687857 -2.6895397
64.204315 -169.64856 2.8236458
38.232147 -90.14785 -0.015743535
34.036057 -77.088921 -0.40658125
26.84116 -55.593178 -1.3602167
26.954794 -55.40189 -1.1771992
24.921276 -49.119743 -1.3813385
23.069241 -43.45549 -1.5853237
12.826459 -14.498071 -3.4632943
20.490999 -35.52248 -1.8541802
19.579428 -32.690353 -1.9406195
18.817749 -30.308998 -2.0081565
17.942205 -27.662676 -2.1145468
13.218352 -14.813075 -3.1405048
13.298169 -14.868025 -3.0718842
13.344709 -14.833321 -3.0106902
13.380928 -14.769162 -2.9513643
13.459079 -14.809079 -2.8797534
13.556223 -14.893891 -2.8018708
13.640191 -14.939902 -2.7259188
13.61797 -14.715195 -2.678771
64.294922 -167.9489 2.8228819
38.597858 -90.173126 0.02552956
34.377247 -77.188942 -0.36668471
27.0553 -55.567368 -1.3364145
27.190994 -55.440403 -1.149521
25.118967 -49.118279 -1.3587478
23.239656 -43.439137 -1.5661381
21.703436 -38.799122 -1.7364081
20.66959 -35.612667 -1.8305435
13.092378 -14.75654 -3.3205655
13.212316 -14.928409 -3.2463179
13.243567 -14.860148 -3.1907568
13.250718 -14.726982 -3.1404245
13.28215 -14.655878 -3.0837433
13.402559 -14.81427 -3.0046844
13.433927 -14.738427 -2.9465845
13.572089 -14.93044 -2.8591254
13.651027 -14.967413 -2.7858529
13.700722 -14.926783 -2.7192929
13.67081 -14.685369 -2.6742167
64.349205 -166.2834 2.8183205
38.886879 -90.032875 0.0562585
34.671741 -77.200699 -0.33332604
27.230566 -55.466545 -1.3183138
27.384018 -55.391037 -1.1285352
25.306524 -49.118347 -1.3372607
23.40329 -43.430767 -1.5475171
13.012811 -14.669001 -3.4368017
13.141564 -14.87213 -3.3637459
13.218685 -14.931183 -3.2997358
13.246152 -14.853947 -3.2451322
13.258527 -14.737127 -3.19398
13.309486 -14.720671 -3.1337018
13.336044 -14.637475 -3.0781493
13.456985 -14.795842 -2.9990492
13.557878 -14.897255 -2.923115
13.819637 -15.396632 -2.8025925
13.731458 -15.012517 -2.7732868
13.769392 -14.942697 -2.7098095
13.745535 -14.717929 -2.6627574
64.359077 -164.62634 2.808903
39.561813 -91.050087 0.14398199
34.950615 -77.215599 -0.3016772
27.469711 -55.580219 -1.2892326
27.713343 -55.754612 -1.0836595
25.479347 -49.107758 -1.3177078
23.560217 -43.430046 -1.5294476
13.145154 -14.871972 -3.4156353
13.178758 -14.816269 -3.3611796
13.249002 -14.856902 -3.2987485
13.287913 -14.811121 -3.2418239
13.304591 -14.706893 -3.1897509
13.357874 -14.696666 -3.128979
13.365343 -14.565483 -3.0780003
15.595966 -20.080248 -2.477257
14.856958 -18.018772 -2.5995862
13.853824 -15.331823 -2.8020809
13.790152 -15.011992 -2.7661083
13.81153 -14.902278 -2.7071626
13.819472 -14.75667 -2.6509743
64.492683 -163.15036 2.814368
39.915592 -91.026344 0.18337642
35.254539 -77.202896 -0.26758739
27.593346 -55.301788 -1.2800488
27.902546 -55.656349 -1.0640687
25.660931 -49.059906 -1.2979848
23.723597 -43.393379 -1.5115614
13.17004 -14.763726 -3.4158583
13.2341 -14.790206 -3.3555498
13.306855 -14.83711 -3.29265
13.32661 -14.74195 -3.2398536
13.27885 -14.472795 -3.2022905
17.281343 -24.575829 -2.2303436
16.0769 -21.281839 -2.4388475
15.483027 -19.579714 -2.5158603
15.08953 -18.40357 -2.5509086
13.951181 -15.405319 -2.7860363
13.890985 -15.096239 -2.7486763
13.907148 -14.973955 -2.6908004
13.886359 -14.76 -2.642422
64.533142 -161.53957 2.8086584
40.334393 -91.239029 0.23287243
35.556717 -77.231613 -0.23307997
27.853827 -55.437336 -1.248149
28.025536 -55.412952 -1.0549424
25.858088 -49.08403 -1.2748144
23.892042 -43.396198 -1.4920524
13.236092 -14.776046 -3.4078436
13.281184 -14.752204 -3.3512526
13.342129 -14.768155 -3.2908883
18.498013 -27.672171 -2.0482991
17.22529 -24.184933 -2.2540543
15.712974 -20.151125 -2.5353322
15.161572 -18.580545 -2.6044936
14.070078 -15.701271 -2.8182137
14.088513 -15.584127 -2.7591579
13.974796 -15.146374 -2.7353625
13.980985 -15.00068 -2.6799643
13.9358 -14.730293 -2.6382387
64.553383 -159.90355 2.8005598
40.710312 -91.327446 0.27610332
35.866341 -77.279297 -0.19744869
27.97805 -55.199337 -1.238171
28.223055 -55.374432 -1.0331767
26.05076 -49.094952 -1.2524471
24.051004 -43.373276 -1.4742935
13.259047 -14.674776 -3.4080794
13.350479 -14.630748 -3.2946444
19.533487 -30.2964 -1.9242609
18.600994 -27.655092 -2.0367513
17.350163 -24.255447 -2.2360611
13.857112 -15.325855 -2.9834418
15.421583 -19.034513 -2.5504375
15.25148 -18.430815 -2.5297616
14.042169 -15.314341 -2.7800248
14.020669 -15.104258 -2.7322185
14.062189 -15.044242 -2.6671414
13.987489 -14.706071 -2.633399
64.623253 -158.33868 2.798435
41.9869 -94.633499 0.16980796
41.172012 -91.591293 0.33104533
36.178066 -77.283226 -0.16219252
28.387094 -55.697159 -1.1831099
28.561611 -55.677849 -0.98840857
26.241787 -49.070816 -1.231053
24.233496 -43.385727 -1.4528906
21.45611 -35.475033 -1.7431476
13.434154 -14.678987 -3.2831473
19.627508 -30.213795 -1.9162321
13.550961 -14.690402 -3.161154
13.599217 -14.667776 -3.1014028
16.619614 -21.970839 -2.3414624
15.333877 -18.618618 -2.581742
15.426556 -18.660751 -2.4962521
14.043459 -15.154488 -2.7888548
14.10591 -15.147443 -2.7191281
14.154383 -15.103751 -2.6519356
14.061513 -14.725694 -2.6228347
64.721077 -156.97705 2.8007038
42.429733 -94.866432 0.22134984
41.578838 -91.754951 0.37865821
36.478962 -77.303162 -0.12791996
28.532536 -55.516056 -1.1697226
28.779469 -55.689144 -0.96329546
26.42988 -49.068199 -1.2095068
24.394939 -43.368229 -1.4346814
22.75474 -38.771469 -1.6152194
13.493064 -14.811859 -3.324614
13.549316 -14.814672 -3.264935
13.550602 -14.67644 -3.215832
18.812698 -27.618666 -2.0130293
17.501163 -24.133684 -2.2232735
16.263586 -20.883638 -2.4349363
15.835202 -19.647617 -2.4698513
14.218346 -15.576283 -2.8067591
14.106197 -15.152409 -2.7812655
14.158869 -15.122295 -2.7140782
14.214477 -15.095775 -2.6449664
14.059876 -14.57811 -2.6328499
64.745491 -155.44081 2.7937407
42.747345 -94.754898 0.25581211
41.94606 -91.807533 0.42052418
36.782642 -77.328522 -0.093242086
28.754776 -55.539883 -1.1440557
28.987715 -55.674019 -0.93979222
26.615643 -49.058472 -1.1883707
24.556341 -43.350395 -1.416472
13.364232 -14.464417 -3.4018612
21.722637 -35.445606 -1.7128859
13.588665 -14.757664 -3.2622597
19.845829 -30.16184 -1.8923255
18.915503 -27.600744 -2.0015032
17.599533 -24.136707 -2.2113492
14.075312 -15.379519 -2.9546525
14.256483 -15.665245 -2.8590472
15.074904 -17.458897 -2.6026957
14.250221 -15.341784 -2.7529376
14.226423 -15.131392 -2.7051787
14.25258 -15.036649 -2.6439347
14.137691 -14.615022 -2.6206403
31.365633 -64.501251 -1.6808759
64.786667 -154.06889 2.7896776
43.0644 -94.699272 0.29072008
42.241566 -91.721954 0.452721
37.063412 -77.337715 -0.061375704
29.024721 -55.719353 -1.1102684
29.223942 -55.763393 -0.9109838
26.791231 -49.050613 -1.1683476
24.711193 -43.340549 -1.3988059
23.023235 -38.706711 -1.585817
21.847189 -35.429253 -1.6988176
13.654326 -14.775767 -3.2539017
19.985886 -30.229252 -1.8732119
18.994913 -27.541294 -1.9944255
13.834272 -14.79755 -3.0675964
16.393766 -20.799553 -2.4231308
15.732965 -19.032198 -2.5127816
14.624381 -16.235161 -2.7223558
14.42438 -15.606904 -2.7166357
14.303054 -15.169808 -2.693403
14.309091 -15.029224 -2.6373532
14.229671 -14.691621 -2.6040108
31.082613 -63.540184 -1.9102404
31.314564 -63.622841 -1.6896483
42.602787 -91.647446 0.49244416
37.399506 -77.35379 -0.023141515
29.122355 -55.351948 -1.1054925
29.590158 -56.085739 -0.86262321
26.999969 -49.041222 -1.1445373
24.905724 -43.355198 -1.3759041
23.232861 -38.807121 -1.5585381
13.716599 -14.894586 -3.2958386
13.730107 -14.791259 -3.2444353
13.810618 -14.849868 -3.1785426
19.114288 -27.532169 -1.980543
13.872322 -14.72164 -3.0663123
16.575609 -21.005877 -2.3915861
15.827474 -19.04829 -2.500489
15.323026 -17.689762 -2.560164
14.300487 -15.150159 -2.7574782
14.365271 -15.148229 -2.6869614
14.398102 -15.070039 -2.623678
14.28513 -14.659475 -2.5991666
30.967354 -62.577896 -1.9236908
31.552185 -63.60648 -1.6634725
65.690781 -153.20969 2.8847027
64.796509 -149.61914 3.2130847
42.923798 -91.575043 0.52768701
37.714157 -77.402557 0.013151289
29.3547 -55.399506 -1.0782351
29.802546 -56.074718 -0.83852351
27.180832 -49.017277 -1.1242517
25.057159 -43.310608 -1.3594956
23.36874 -38.766346 -1.5438539
22.12092 -35.375347 -1.6684061
13.799417 -14.808138 -3.2356813
20.189089 -30.104742 -1.8537264
19.237179 -27.562151 -1.9646566
17.956282 -24.275703 -2.1624877
16.422359 -20.442404 -2.4362233
15.353636 -17.75779 -2.6219962
15.460339 -17.837271 -2.5355673
14.433991 -15.309554 -2.7320921
14.413032 -15.11102 -2.6832366
14.438123 -15.016226 -2.6220424
14.318819 -14.595373 -2.599165
31.529394 -63.471321 -1.8612719
31.406359 -62.615822 -1.6830994
65.940956 -152.43919 2.9076633
64.934357 -148.5947 3.2192929
43.223316 -91.499962 0.5604921
31.919485 -61.891438 -0.86672986
30.012371 -56.554794 -0.98349392
29.955324 -55.94561 -0.82360709
27.356596 -49.008076 -1.1042072
25.219707 -43.31839 -1.3404489
13.705895 -14.704178 -3.3552182
22.293903 -35.476223 -1.6449505
13.845065 -14.776242 -3.2313786
20.317068 -30.140394 -1.8371923
19.333973 -27.544613 -1.9537826
13.991932 -14.718509 -3.0520599
16.639544 -20.765066 -2.3949902
16.016518 -19.132193 -2.4733083
15.722113 -18.277977 -2.4802735
14.499059 -15.318919 -2.7235308
14.462234 -15.085952 -2.6786003
14.499682 -15.019612 -2.614121
14.368965 -14.576614 -2.5940824
31.66905 -63.159374 -1.8462049
31.752701 -62.854424 -1.6440054
31.84313 -62.064945 -1.2566785
32.031105 -62.036484 -1.0436242
32.184807 -61.922974 -0.83624285
30.398533 -56.941788 -0.93286467
30.038517 -55.581379 -0.82134986
27.557852 -49.005646 -1.0810523
25.385111 -43.283436 -1.3221551
23.683838 -38.790512 -1.5063962
13.86919 -14.808222 -3.2806304
13.91521 -14.785758 -3.2227635
13.95502 -14.745877 -3.1652439
13.975497 -14.660152 -3.1116924
14.038672 -14.673231 -3.0483775
16.891247 -21.138401 -2.3472204
15.914403 -18.70524 -2.5068331
15.704692 -18.054953 -2.4941242
14.573686 -15.33216 -2.713562
14.541069 -15.110496 -2.6673348
14.555307 -14.992921 -2.6088185
14.448329 -14.606109 -2.5821116
85.094048 -200.09334 4.7343316
31.85586 -61.988194 -1.4459823
32.058224 -62.002769 -1.2331789
32.246105 -61.974304 -1.0201559
32.417297 -61.905521 -0.81016594
30.413933 -56.431362 -0.93987477
30.203112 -55.454792 -0.80499691
27.74651 -48.999329 -1.0594335
25.562092 -43.300522 -1.3011719
23.82995 -38.773796 -1.4898025
13.954454 -14.862044 -3.2689252
14.000436 -14.839104 -3.2108634
20.51506 -30.022034 -1.8180223
19.547646 -27.51033 -1.9295691
14.136486 -14.755169 -3.0330594
17.814337 -23.056768 -2.146652
16.111488 -18.976652 -2.4693811
14.54246 -15.262499 -2.7835486
14.621778 -15.294044 -2.709729
14.591008 -15.07857 -2.6629896
14.630517 -15.017678 -2.5978289
14.504304 -14.591776 -2.5759802
31.686445 -61.911995 -1.8453256
31.558054 -61.079384 -1.6717969
32.09108 -61.941475 -1.4201312
32.268013 -61.891659 -1.2107074
44.282856 -91.418915 0.67878318
38.862343 -77.257469 0.14105621
30.416828 -55.867195 -0.94921792
30.378473 -55.325005 -0.78746766
27.942841 -48.983356 -1.0371333
25.724792 -43.258457 -1.2833498
13.899507 -14.702946 -3.3326347
22.710644 -35.424419 -1.5975835
14.031591 -14.755709 -3.2100153
20.719212 -30.200233 -1.7870986
19.645527 -27.464691 -1.9196559
14.198875 -14.745678 -3.0259359
15.133482 -16.735058 -2.7637711
15.595155 -17.62392 -2.5991037
15.650806 -17.587084 -2.5252826
14.670465 -15.249207 -2.7061903
14.67529 -15.114066 -2.6503739
14.683477 -14.985057 -2.5932066
14.550611 -14.548658 -2.5729563
31.102827 -61.884636 -2.6685979
31.29492 -61.874134 -2.4575782
31.512068 -61.926319 -2.2431741
31.716803 -61.950043 -2.0313926
32.079807 -62.37772 -1.801766
31.576876 -60.598217 -1.6714211
65.085762 -143.33209 3.1891017
44.64323 -91.544167 0.72082394
39.224697 -77.501976 0.18563391
30.639772 -55.942566 -0.92249697
30.555456 -55.292576 -0.76780027
28.111273 -48.981117 -1.0177317
25.865538 -43.2356 -1.2675776
24.077116 -38.653828 -1.4642999
22.846338 -35.450993 -1.5807859
14.091997 -14.767303 -3.202466
20.791615 -30.120003 -1.781432
14.188007 -14.726535 -3.0835516
14.25658 -14.750664 -3.0187516
17.424509 -21.763556 -2.2536135
15.1083 -16.388411 -2.7194483
15.890471 -17.974205 -2.4754806
14.679845 -15.14347 -2.7109017
14.754904 -15.163396 -2.6375163
14.733996 -14.971788 -2.5876722
14.607535 -14.552413 -2.5654912
31.327618 -61.811146 -2.6438339
31.517139 -61.794197 -2.4330783
32.560825 -62.948181 -1.7484977
32.089104 -61.259739 -1.6124893
65.230072 -142.2562 3.1956525
45.107727 -91.768639 0.77576071
39.547409 -77.515495 0.22240964
30.705915 -55.544044 -0.92177016
30.787819 -55.301388 -0.74094355
28.310331 -48.970238 -0.99497008
26.049225 -43.24268 -1.2460343
24.278915 -38.74604 -1.4380697
14.16734 -14.916559 -3.242167
14.181111 -14.819157 -3.1901348
14.215042 -14.76649 -3.1334884
19.849693 -27.437878 -1.8962084
18.480404 -24.120403 -2.1059384
17.562733 -21.859983 -2.2323537
15.667852 -17.466372 -2.5979364
15.281036 -16.457848 -2.6299512
14.730419 -15.104246 -2.7067957
14.871387 -15.26672 -2.6168642
14.791889 -14.950145 -2.581723
14.690036 -14.586664 -2.5527658
31.549568 -61.730194 -2.6193037
32.678715 -62.595821 -1.735844
32.632202 -61.983711 -1.5499225
65.307091 -141.03343 3.193372
45.463612 -91.723022 0.81533074
39.875774 -77.540886 0.2600145
30.82247 -55.272247 -0.91310656
31.012407 -55.290546 -0.71536058
28.509497 -48.959023 -0.9722001
26.214394 -43.205364 -1.2277617
14.001071 -14.502468 -3.3264129
23.085388 -35.311035 -1.5569574
14.230336 -14.778491 -3.1856778
21.005709 -30.022051 -1.7594866
19.963224 -27.427786 -1.8829613
18.592728 -24.137333 -2.0916181
15.341591 -16.72645 -2.7388325
14.749657 -15.27675 -2.8179786
16.273401 -18.460104 -2.4028158
14.794109 -15.09366 -2.6994624
14.866667 -15.108031 -2.6267774
14.87345 -14.978866 -2.5696433
14.738664 -14.548663 -2.549077
32.996521 -62.81649 -1.7007744
31.608299 -58.900646 -1.6739339
67.957909 -147.35489 3.1002133
65.311096 -139.80757 3.1829076
45.824402 -91.788979 0.85675943
40.164761 -77.554916 0.29299951
31.061592 -55.356277 -0.88437307
31.149803 -55.133591 -0.70268524
28.67758 -48.927475 -0.95346779
26.361378 -43.172497 -1.2114805
14.126327 -14.656399 -3.307394
23.255798 -35.396381 -1.5342076
14.280791 -14.757948 -3.1803803
21.134821 -30.055359 -1.7428243
20.048826 -27.384254 -1.8743911
14.458711 -14.77042 -2.9934361
17.64016 -21.6325 -2.2333529
15.575374 -16.943138 -2.6349351
15.179567 -15.935787 -2.6697297
14.850951 -15.084725 -2.6928749
14.910241 -15.070626 -2.6235087
14.975154 -15.065271 -2.5514264
14.81229 -14.578713 -2.5377328
31.578705 -58.201786 -1.6796612
68.401169 -146.89821 3.1466997
65.420792 -138.62943 3.1847227
46.153774 -91.627434 0.89202386
40.49633 -77.54229 0.33044681
31.300722 -55.347336 -0.85720378
31.371899 -55.087006 -0.67806727
28.895136 -48.931347 -0.92820001
26.55703 -43.18177 -1.1884465
24.739103 -38.697903 -1.3854923
14.38027 -14.948813 -3.2160482
14.365705 -14.789769 -3.1692133
14.459184 -14.871089 -3.1004453
20.15448 -27.341759 -1.8633554
18.750019 -24.033903 -2.0769722
18.056225 -22.319843 -2.1510532
15.815248 -17.287659 -2.5885875
15.697086 -16.881744 -2.5563841
14.888256 -15.009658 -2.6923718
14.961014 -15.024675 -2.619823
15.047427 -15.064469 -2.5423324
14.823978 -14.456598 -2.5442357
31.802874 -58.225655 -1.6547972
33.425457 -61.674496 -1.273357
65.455017 -137.51382 3.1786487
46.561089 -91.79985 0.93995833
40.799362 -77.586166 0.36548185
31.603556 -55.575459 -0.81871438
31.567881 -55.067993 -0.65589434
29.063162 -48.898792 -0.90947181
26.7012 -43.142128 -1.1726495
24.882647 -38.693275 -1.3687841
23.489019 -35.263073 -1.5108
14.429915 -14.799568 -3.1612418
21.325066 -29.920925 -1.7250021
20.272652 -27.370224 -1.8479805
18.755928 -23.843479 -2.0843863
17.395779 -20.704332 -2.305716
15.364669 -16.17358 -2.698482
15.407637 -16.122156 -2.6317761
15.268625 -15.68344 -2.6076512
15.052916 -15.089129 -2.6044929
15.101514 -15.049503 -2.5364058
14.89224 -14.475327 -2.5342979
32.023293 -58.207016 -1.6304932
33.617355 -61.556385 -1.2527286
65.515297 -136.40367 3.1755629
47.026566 -92.054657 0.99542832
41.113312 -77.61235 0.4015089
31.988031 -55.957714 -0.76826006
31.780716 -55.057995 -0.63159466
29.244085 -48.869453 -0.88917381
26.868067 -43.130432 -1.1534755
14.344736 -14.714502 -3.2801273
23.667852 -35.344837 -1.4871252
14.4643 -14.734741 -3.1593411
21.452496 -29.933264 -1.7092732
20.355347 -27.306278 -1.8405361
18.837721 -23.807098 -2.0760014
17.555325 -20.860533 -2.2790577
15.831149 -17.01811 -2.599787
16.087246 -17.409931 -2.4805357
15.139108 -15.271149 -2.6465921
15.094068 -15.039031 -2.6022372
15.142612 -14.99991 -2.5342562
14.963883 -14.492928 -2.5239897
33.114887 -60.752213 -1.6894425
32.218266 -58.159023 -1.609102
34.28944 -62.605316 -1.1714274
65.540932 -135.30209 3.1686783
47.338238 -91.995255 1.0299097
41.40353 -77.623032 0.43463439
32.211761 -55.994022 -0.74205357
31.965689 -55.012886 -0.61118484
29.431456 -48.879955 -0.86721045
27.028738 -43.127068 -1.1348069
25.108362 -38.525162 -1.346989
14.564135 -14.945988 -3.1943967
14.520116 -14.725894 -3.1529894
14.603185 -14.782849 -3.0864305
14.606775 -14.666293 -3.0355098
19.014549 -23.986959 -2.0468335
17.744799 -21.088446 -2.245445
16.044147 -17.323151 -2.5586469
16.456074 -18.035677 -2.402251
15.09729 -15.05522 -2.6637282
15.16731 -15.063424 -2.5915811
15.242959 -15.079699 -2.5165837
14.994384 -14.434062 -2.5239241
33.795979 -61.734329 -1.6138616
32.351166 -57.8699 -1.5954137
33.514004 -60.152687 -1.2728943
65.625252 -134.13974 3.1678493
47.852562 -92.256165 1.0909842
41.744514 -77.625702 0.47342706
32.345303 -55.735603 -0.73115736
32.195805 -54.98259 -0.58526844
29.638248 -48.856388 -0.84375507
27.205267 -43.090931 -1.1151034
25.332069 -38.636219 -1.3175704
14.619452 -14.90935 -3.1889772
14.647779 -14.848525 -3.1336372
21.638231 -29.79125 -1.6921927
20.590225 -27.314526 -1.8118302
19.084574 -23.899294 -2.0420403
18.244129 -21.932156 -2.145756
15.912683 -16.875336 -2.5966799
15.736458 -16.364632 -2.578342
15.217082 -15.151361 -2.6434288
15.295181 -15.175128 -2.5689218
15.326505 -15.100434 -2.5046773
15.050689 -14.405427 -2.5185728
33.93597 -61.492802 -1.5986791
32.567974 -57.843456 -1.5715275
34.53833 -61.974609 -1.1475972
65.652367 -133.00618 3.1608803
48.175442 -92.169975 1.126453
42.042812 -77.610901 0.50713456
32.513065 -55.615807 -0.71397597
32.403152 -54.958355 -0.56184596
29.824795 -48.83791 -0.82252121
27.366577 -43.065681 -1.0968943
14.550633 -14.739718 -3.2552085
14.670682 -14.880634 -3.1837907
14.55701 -14.514647 -3.1557088
21.768486 -29.808712 -1.6759012
20.695028 -27.297976 -1.7998037
19.211704 -23.957483 -2.0240753
14.938539 -14.831367 -2.8747706
16.663786 -18.28294 -2.435405
15.669093 -16.08082 -2.6014168
15.322401 -15.231871 -2.6257899
15.336283 -15.124591 -2.5666749
15.35909 -15.033652 -2.5046425
15.08379 -14.345489 -2.5182219
34.145866 -61.417072 -1.5756851
33.293194 -58.990929 -1.4873147
34.01886 -60.221798 -1.2162355
65.703468 -131.94373 3.1572409
48.674854 -92.483223 1.1864728
42.372227 -77.665268 0.5453738
32.742393 -55.634674 -0.68739456
32.61618 -54.946003 -0.53752089
29.999996 -48.794006 -0.80315858
27.550634 -43.089603 -1.0747719
25.570076 -38.476032 -1.2940367
14.778883 -14.974665 -3.1680689
22.948294 -32.299965 -1.5557532
21.856087 -29.735004 -1.6680646
14.852784 -14.766094 -3.0018039
19.276579 -23.884319 -2.0192676
18.371519 -21.814556 -2.1354687
17.092554 -19.004469 -2.3473179
16.624006 -17.888409 -2.3889613
15.346562 -15.146443 -2.627444
15.441646 -15.203715 -2.5487351
15.427594 -15.039225 -2.4955626
15.152664 -14.356955 -2.5086253
35.011292 -62.853733 -1.4794916
34.316013 -60.798428 -1.3678814
33.815365 -59.21719 -1.2450752
65.719063 -130.81808 3.14908
49.021103 -92.445885 1.2251624
42.662502 -77.629799 0.57789785
32.875126 -55.438564 -0.67549729
32.826439 -54.926861 -0.51363415
30.203686 -48.812157 -0.77908701
27.700508 -43.038254 -1.0585212
25.773289 -38.577694 -1.2672528
14.853241 -14.994681 -3.1586299
14.837806 -14.841711 -3.1111782
14.838234 -14.721636 -3.0604179
20.887278 -27.228024 -1.7792727
19.473097 -24.084606 -1.9867929
18.603731 -22.103159 -2.0938051
17.134798 -18.925323 -2.3459213
15.628427 -15.716259 -2.6253166
15.489439 -15.300621 -2.6010261
15.493879 -15.175389 -2.5437622
15.501815 -15.055753 -2.4850702
15.24127 -14.406676 -2.4939985
33.596928 -59.052139 -1.6378475
34.767567 -61.276783 -1.3162626
34.008862 -59.123699 -1.2240872
65.759033 -129.76321 3.1442869
49.472736 -92.641869 1.2784644
42.975666 -77.644524 0.61374974
33.089985 -55.424549 -0.65110171
33.030949 -54.894501 -0.49065903
30.398954 -48.81065 -0.75641739
27.861755 -43.011658 -1.0403161
25.855648 -38.419601 -1.2619489
14.895931 -14.947046 -3.155025
23.177383 -32.225193 -1.5308774
22.059019 -29.64739 -1.6468271
20.980288 -27.186686 -1.7696137
19.543833 -24.022774 -1.980764
15.526517 -15.634789 -2.7659793
16.923376 -18.333353 -2.4008026
16.915751 -18.165827 -2.3382232
15.579076 -15.346025 -2.587254
15.523213 -15.101924 -2.5443048
15.542191 -15.005342 -2.4830017
15.279529 -14.357348 -2.4922624
33.846138 -59.08548 -1.6104443
35.115093 -61.511703 -1.2769938
34.267345 -59.176033 -1.1949595
36.015526 -62.632221 -0.78414375
49.857235 -92.684929 1.3224267
43.289154 -77.657898 0.64963514
33.362778 -55.536022 -0.61794615
33.249954 -54.893009 -0.46539667
30.562435 -48.740299 -0.7389735
28.014223 -42.965736 -1.0236026
26.042095 -38.483299 -1.2381781
14.964633 -14.954419 -3.1466377
23.371981 -32.354664 -1.5032508
22.174814 -29.633392 -1.6333795
21.032263 -27.061274 -1.768234
19.704475 -24.144789 -1.9559629
17.781708 -20.061588 -2.2875826
17.394598 -19.121861 -2.3041792
16.76708 -17.713541 -2.3800991
15.625957 -15.305737 -2.583549
15.620854 -15.163398 -2.5283391
15.602265 -14.993759 -2.4760237
15.354378 -14.379201 -2.4811907
34.062595 -59.012539 -1.5867213
37.415939 -66.064407 -1.0066264
34.567238 -59.287258 -1.1608478
36.164036 -62.378048 -0.76969391
50.368542 -92.954559 1.3833462
43.613125 -77.653244 0.68647009
33.537231 -55.40419 -0.60014892
33.480457 -54.88731 -0.4388724
30.76498 -48.728794 -0.71566105
28.184288 -42.935558 -1.0044252
26.210701 -38.4888 -1.2181278
15.036759 -14.960596 -3.1378706
14.993296 -14.753301 -3.0955343
15.101235 -14.856982 -3.0237892
21.206724 -27.173292 -1.7426345
19.915213 -24.353598 -1.9213504
18.305201 -20.930365 -2.1837151
17.469975 -19.098988 -2.2959163
16.389446 -16.806353 -2.4740233
15.673081 -15.258616 -2.5801764
15.742589 -15.262892 -2.507107
15.688632 -15.025341 -2.4630201
15.381291 -14.301332 -2.4827449
34.200165 -58.825897 -1.5717517
35.531208 -61.348721 -1.2315011
35.808037 -61.523399 -1.0088607
65.881065 -126.69801 3.1311054
50.762001 -93.057724 1.4290364
43.93182 -77.71386 0.72364426
34.096123 -56.151455 -0.52345031
33.700214 -54.913105 -0.41296369
30.935598 -48.697956 -0.69647992
28.354103 -42.947483 -0.98421377
26.348566 -38.467587 -1.2024252
15.063833 -14.889158 -3.1368332
15.090699 -14.828106 -3.0813587
22.36787 -29.526136 -1.6139753
21.308365 -27.162823 -1.7306836
20.025526 -24.381269 -1.9066658
17.312084 -18.784245 -2.403276
16.265364 -16.563457 -2.5680523
17.236469 -18.334015 -2.2894211
15.765637 -15.315745 -2.5653684
15.747891 -15.150735 -2.512912
15.751191 -15.025476 -2.4549835
15.452985 -14.323812 -2.4720187
27.265877 -45.968777 -3.658066
34.358078 -58.625065 -1.5545567
34.88158 -59.356049 -1.3102733
37.360237 -64.335526 -0.81863117
65.925629 -125.65096 3.1269517
51.294434 -93.362022 1.4927689
44.25349 -77.700745 0.76012897
34.414227 -56.318836 -0.48411983
33.928127 -54.899952 -0.38686121
31.144209 -48.697655 -0.67217988
28.521181 -42.909859 -0.96554232
15.018389 -14.768237 -3.1992269
15.129913 -14.882786 -3.1291604
23.691217 -32.17345 -1.4710504
22.513487 -29.557493 -1.5952452
21.397795 -27.100758 -1.7222272
20.0277 -24.168734 -1.9153463
18.883856 -21.72085 -2.0765524
17.526373 -18.887028 -2.299114
17.226467 -18.150858 -2.3000669
15.745096 -15.137796 -2.577661
15.791426 -15.098213 -2.5103917
15.85548 -15.089801 -2.4376619
15.516874 -14.316794 -2.4641953
27.460384 -45.992912 -3.6387374
35.775059 -61.212414 -1.3968611
34.897125 -58.873146 -1.3102129
37.130703 -63.284378 -0.85062438
65.922874 -124.58063 3.1172965
37.137123 -62.422077 -0.46283844
37.214615 -62.155106 -0.26135308
34.424149 -55.862892 -0.49061885
34.138863 -54.877117 -0.36291915
31.291965 -48.594402 -0.65724838
28.676235 -42.86869 -0.94836563
26.672384 -38.465935 -1.1641787
15.228708 -14.950478 -3.1153238
23.821796 -32.167618 -1.4555678
15.328146 -14.918692 -2.9941313
21.493092 -27.064135 -1.7120467
20.358414 -24.619875 -1.8557844
18.868362 -21.508539 -2.0880318
17.614607 -18.899826 -2.2874994
16.605923 -16.799299 -2.447217
15.870698 -15.250213 -2.5556431
15.893061 -15.164289 -2.4936149
15.912917 -15.071851 -2.4313643
15.574619 -14.305141 -2.4574547
27.657921 -46.022491 -3.6192377
35.834557 -60.808983 -1.3906325
34.809647 -58.175114 -1.3222935
37.597137 -63.739681 -0.79583055
65.972763 -123.63776 3.1146805
52.591125 -94.531563 1.6529087
37.333328 -61.879288 -0.25168601
34.626255 -55.81366 -0.46821725
34.352673 -54.860054 -0.33850014
31.496485 -48.60886 -0.6330834
28.831165 -42.827179 -0.9312017
26.824442 -38.453686 -1.1465236
15.240349 -14.841127 -3.1172657
15.266614 -14.780234 -3.0618367
22.705502 -29.448635 -1.5759518
21.615425 -27.080872 -1.6964773
20.388014 -24.473501 -1.858289
18.274405 -20.173622 -2.2216427
16.051687 -15.722306 -2.6351438
16.982792 -17.380856 -2.3700922
16.074497 -15.509433 -2.5157301
15.962607 -15.168495 -2.4844849
15.964439 -15.042739 -2.4265008
15.623544 -14.276971 -2.4529092
27.891073 -46.132816 -3.5979965
35.623108 -59.412834 -1.2279723
35.764324 -59.304943 -1.0272207
66.007637 -122.67646 3.1102347
45.21418 -77.759033 0.87053502
34.86441 -55.838718 -0.44041631
34.584675 -54.879631 -0.31124401
31.676985 -48.572781 -0.6128149
28.992006 -42.797207 -0.91303051
15.211655 -14.764033 -3.1764691
15.336529 -14.902247 -3.1039293
24.070948 -32.130852 -1.4268526
22.869549 -29.52879 -1.553184
15.467738 -14.818654 -2.9249477
20.46524 -24.421494 -1.8509758
19.081261 -21.563562 -2.0591872
17.571333 -18.502514 -2.3119731
17.297565 -17.835054 -2.3072755
16.007605 -15.253144 -2.5381238
16.02035 -15.150146 -2.4781535
16.015802 -15.013491 -2.4216542
15.672349 -14.248695 -2.4483764
28.134747 -46.238914 -3.5755997
34.799786 -57.13155 -1.3269548
36.964443 -61.296909 -0.88122851
36.488808 -59.886856 -0.75493407
36.963448 -60.463978 -0.5047878
37.217236 -60.578648 -0.28318006
34.971397 -55.566105 -0.43265823
34.816132 -54.870239 -0.2846089
31.873585 -48.545353 -0.59046358
29.183178 -42.807423 -0.8902967
27.084585 -38.320763 -1.1193711
15.436551 -14.961974 -3.0901754
24.22069 -32.14584 -1.4083363
15.526427 -14.911354 -2.9703786
15.542878 -14.829146 -2.91536
20.559645 -24.391186 -1.8406235
19.171495 -21.54821 -2.0486815
17.987677 -19.131813 -2.2297735
16.656952 -16.469198 -2.457649
16.062998 -15.222102 -2.532764
16.078396 -15.124967 -2.4721642
16.100225 -15.038142 -2.4092548
15.73611 -14.241036 -2.4405658
28.267818 -46.167427 -3.5603418
37.214642 -62.206432 -1.2378939
34.838505 -56.783749 -1.323851
36.628807 -60.13908 -0.92568731
66.025375 -120.74501 3.0954478
37.54789 -60.812252 -0.24215482
35.293556 -55.816074 -0.39143324
35.004555 -54.852463 -0.26311013
32.033813 -48.515034 -0.57241648
29.338507 -42.807007 -0.87202638
27.254271 -38.379494 -1.0976297
15.462173 -14.897083 -3.0890813
15.475494 -14.811511 -3.0356703
23.042315 -29.396383 -1.5370029
21.88855 -26.95862 -1.6678751
20.619804 -24.330444 -1.8357501
19.180283 -21.408945 -2.0538285
16.458929 -16.10475 -2.5659091
17.150131 -17.27367 -2.3544719
16.086819 -15.15478 -2.5333781
16.092957 -15.04159 -2.475076
16.162788 -15.043829 -2.4008229
15.77527 -14.209154 -2.4374995
28.369425 -45.927948 -3.5443754
37.725357 -62.688377 -1.1813945
34.761608 -56.087223 -1.3347414
36.924889 -60.188263 -0.89233774
66.09967 -119.78902 3.0955184
37.83728 -61.247284 -0.39685544
38.010361 -61.19062 -0.18403444
35.577209 -55.875149 -0.35779655
35.216621 -54.775749 -0.23999183
32.249763 -48.502041 -0.54747003
29.520369 -42.776333 -0.85137129
15.417956 -14.775411 -3.1516907
15.5412 -14.906661 -3.0793407
24.451359 -32.070885 -1.3830398
23.219833 -29.47121 -1.5127603
15.671433 -14.822 -2.899914
20.378767 -23.65151 -1.8938223
18.413624 -19.767437 -2.2225747
18.283789 -19.373722 -2.1811323
17.259392 -17.318419 -2.3383975
16.419897 -15.629856 -2.4653075
16.178249 -15.05966 -2.463094
16.205641 -14.984398 -2.3988724
15.818088 -14.156692 -2.4352601
35.162926 -56.473198 -1.2889661
37.5914 -61.084831 -0.8125152
66.122505 -118.91379 3.0905194
37.903126 -60.905323 -0.39325562
46.359005 -77.539085 0.99821383
35.677799 -55.646229 -0.35001212
35.450531 -54.821632 -0.21196605
32.429337 -48.485817 -0.52682334
29.669199 -42.74147 -0.83469522
27.504 -38.226547 -1.0721989
15.622806 -14.943553 -3.0684612
24.575335 -32.065224 -1.3682779
15.671505 -14.814977 -2.9562273
15.75271 -14.857734 -2.8885725
20.531792 -23.759672 -1.8704253
19.376783 -21.419619 -2.0289197
18.475334 -19.581686 -2.1471899
17.113958 -16.916576 -2.3771892
16.362074 -15.403054 -2.4849124
16.305574 -15.175425 -2.4401135
16.250246 -14.950171 -2.3951583
15.905456 -14.204911 -2.4207656
35.686405 -57.403492 -1.4094954
35.279861 -56.18552 -1.2769829
37.743843 -60.82935 -0.79702288
37.750305 -60.44146 -0.60819191
46.803825 -77.725525 1.0516627
36.675407 -57.120461 -0.21062918
35.684368 -54.78701 -0.18548284
32.607738 -48.397831 -0.50789255
29.850958 -42.709442 -0.81405312
27.715845 -38.291626 -1.0452436
15.598207 -14.752949 -3.0771651
15.717686 -14.872575 -3.004452
23.438505 -29.398706 -1.4887769
15.803436 -14.813017 -2.8840885
20.657112 -23.780121 -1.8540907
18.633272 -19.845217 -2.1917598
17.796015 -18.151493 -2.3005941
16.827919 -16.238575 -2.4477639
16.421225 -15.370045 -2.4791393
16.348534 -15.115048 -2.4380295
16.335297 -14.967425 -2.3830814
15.990612 -14.227956 -2.4081509
35.893688 -57.34861 -1.3867483
35.229652 -55.617077 -1.2844719
38.428696 -61.711365 -0.71523088
37.868153 -60.182449 -0.59715956
47.111721 -77.709175 1.0866511
36.478485 -56.271408 -0.24738912
35.908199 -54.784237 -0.15953901
32.806778 -48.395702 -0.48463303
30.011681 -42.677113 -0.79589051
15.50457 -14.553826 -3.1474812
26.313511 -35.054245 -1.1809729
24.803051 -31.953753 -1.3444662
23.55719 -29.386869 -1.4747539
15.875723 -14.823567 -2.8748121
20.87339 -23.99103 -1.8185802
16.05126 -14.923719 -2.7328973
18.632301 -19.535957 -2.1296475
17.451717 -17.240919 -2.3179843
16.476511 -15.34479 -2.4734347
16.396717 -15.079054 -2.4338725
16.404652 -14.970181 -2.3739035
16.06959 -14.252896 -2.3962095
35.391476 -55.510651 -1.266894
38.137863 -60.652573 -0.75406843
39.68644 -63.341991 -0.36518189
47.451313 -77.790977 1.1266387
36.416828 -55.724812 -0.26353669
36.117702 -54.778217 -0.13530429
32.992714 -48.390354 -0.46297386
30.157101 -42.635128 -0.77976292
27.970558 -38.18388 -1.0178915
15.822223 -14.93344 -3.0448728
24.955595 -32.001076 -1.3244735
23.666462 -29.370922 -1.4620141
15.982965 -14.90588 -2.8584664
21.019331 -24.080065 -1.7968204
17.864475 -18.127918 -2.3640964
17.744587 -17.774263 -2.3249867
17.368046 -16.959124 -2.3428416
16.669029 -15.573144 -2.4365489
16.500547 -15.149469 -2.416476
16.483068 -14.995789 -2.3621607
16.108616 -14.213876 -2.3935699
37.728333 -60.096451 -1.1829997
35.766754 -55.778656 -1.2243919
36.996113 -57.859653 -0.89836138
40.39185 -64.192596 -0.27841204
47.762985 -77.742676 1.1616364
36.789742 -55.976196 -0.21637399
36.356419 -54.77668 -0.10758249
33.166828 -48.316452 -0.44419014
30.326544 -42.598541 -0.76064533
28.146471 -38.195553 -0.99663466
15.92417 -14.991242 -3.030901
15.909945 -14.856898 -2.9817326
23.752956 -29.285 -1.4545352
22.541666 -26.851645 -1.5919288
21.019779 -23.878746 -1.805107
17.8916 -18.022352 -2.3654022
18.269119 -18.569672 -2.2212155
16.742748 -15.694323 -2.4860787
16.545738 -15.221032 -2.4712176
16.596031 -15.189532 -2.4018705
16.543509 -14.97512 -2.3555305
16.175543 -14.210333 -2.3850005
37.828732 -59.804806 -1.1721749
37.671749 -59.103523 -1.0020132
36.510918 -56.433468 -0.96110636
40.714664 -64.308533 -0.24104524
48.06839 -77.717873 1.1962571
36.838081 -55.623894 -0.2166058
36.561432 -54.734894 -0.08453501
33.369328 -48.319088 -0.42039269
30.480581 -42.552635 -0.74356651
28.285557 -38.154816 -0.98118353
26.740368 -35.022106 -1.1307178
25.178946 -31.895973 -1.3009021
23.897264 -29.319773 -1.4356902
22.655142 -26.847475 -1.5781329
20.203806 -22.208553 -1.9754181
16.314533 -15.033109 -2.6951535
18.680182 -19.158253 -2.1415317
17.257315 -16.483648 -2.3808918
16.638437 -15.262641 -2.4571047
16.678978 -15.213862 -2.3897676
16.594223 -14.944481 -2.3507521
16.223738 -14.18077 -2.3805318
38.013027 -59.711174 -1.151978
40.170738 -63.574589 -0.70992279
36.901157 -56.768044 -0.91548645
58.431503 -97.666046 2.3508487
48.383797 -77.747108 1.2327808
37.050735 -55.615566 -0.19219288
36.774532 -54.733311 -0.059763551
33.549004 -48.299835 -0.39973333
30.65485 -42.564289 -0.72267878
15.924839 -14.85407 -3.0892351
26.87759 -35.01704 -1.1143758
25.328922 -31.936121 -1.2814239
23.996756 -29.28513 -1.4247751
16.17577 -14.888323 -2.8354282
21.195484 -23.831743 -1.7852582
18.631573 -19.068556 -2.2264769
19.071756 -19.712378 -2.0659244
17.245356 -16.338842 -2.3896997
16.769472 -15.377893 -2.4341319
16.746084 -15.217023 -2.3809021
16.657249 -14.942228 -2.34266
16.256041 -14.130677 -2.3794434
38.373653 -59.878914 -1.1121969
39.856003 -62.388718 -0.74879724
37.004524 -56.459282 -0.90577072
67.992569 -115.86326 3.274925
40.595455 -62.62534 -0.068221428
48.763599 -77.789421 1.2768849
37.350075 -55.693066 -0.15634276
37.011929 -54.701092 -0.032743618
33.748917 -48.251572 -0.37732446
30.83301 -42.523117 -0.70260215
28.6073 -38.135624 -0.94333714
16.095203 -14.924504 -3.0123508
16.12212 -14.868251 -2.9556613
16.134161 -14.783381 -2.9009533
22.871635 -26.806793 -1.5530338
21.260231 -23.739315 -1.7810274
18.720543 -19.058031 -2.2157958
18.762001 -18.992783 -2.13902
17.030659 -15.817484 -2.4432445
16.879581 -15.433155 -2.4170344
16.823441 -15.216393 -2.3709154
16.692257 -14.870832 -2.3423522
16.329136 -14.130926 -2.369787
38.56432 -59.796825 -1.091288
39.903458 -62.010387 -0.74479866
37.371746 -56.742317 -0.8630231
68.388222 -115.76736 3.318716
59.083782 -97.340469 2.4213464
49.050568 -77.761307 1.3093815
38.448208 -57.34697 -0.0023144567
37.235149 -54.716835 -0.0064383531
33.931873 -48.237415 -0.35614359
30.997677 -42.515427 -0.68329537
15.886425 -14.529145 -3.1026516
27.151283 -34.956387 -1.0832742
25.541592 -31.81126 -1.2597197
24.236938 -29.24991 -1.3966649
22.982748 -26.809593 -1.5392237
21.129076 -23.332365 -1.8141044
16.456533 -14.921068 -2.6823246
19.101728 -19.448311 -2.0745959
17.906803 -17.225208 -2.2609012
16.892767 -15.341102 -2.4202449
16.897121 -15.230186 -2.3605759
16.7966 -14.939028 -2.3246272
16.405455 -14.155828 -2.3581355
38.991955 -60.116497 -1.0440239
40.129559 -61.922096 -0.72001421
38.275555 -57.991753 -0.75452608
41.231678 -63.242504 -0.19187595
59.403839 -97.145081 2.4555631
41.016041 -62.049412 0.17192505
38.700394 -57.34462 0.026799589
37.458134 -54.681046 0.018863516
34.138203 -48.22192 -0.3322373
31.166929 -42.476822 -0.66419494
16.140757 -14.864038 -3.063195
27.313261 -34.963135 -1.063573
25.725353 -31.88113 -1.235134
24.358501 -29.227743 -1.382569
16.388603 -14.890216 -2.8091142
21.130508 -23.143251 -1.8217074
19.988869 -20.981056 -1.9718518
19.099579 -19.284279 -2.082587
17.551336 -16.468088 -2.3442039
17.025797 -15.441637 -2.3977666
17.01326 -15.301888 -2.3414512
16.853582 -14.91208 -2.3187673
16.462847 -14.135316 -2.3518379
38.884975 -59.45993 -1.0562621
41.604507 -64.275002 -0.54856253
37.968735 -56.978542 -0.7948451
41.390129 -63.074718 -0.17542967
59.746395 -97.080399 2.4938104
49.610397 -77.604492 1.3714181
38.94577 -57.381241 0.05576684
37.651867 -54.640438 0.040678836
34.298016 -48.164314 -0.31470072
31.298391 -42.407684 -0.65029883
28.982279 -37.951164 -0.90356427
16.312122 -14.95462 -2.9853387
16.325111 -14.874184 -2.930829
16.339569 -14.795034 -2.8754015
23.193539 -26.769161 -1.5147471
20.921976 -22.609781 -1.8695958
19.774277 -20.454828 -2.0219765
18.646816 -18.361029 -2.1833317
17.249083 -15.827793 -2.4148495
17.009144 -15.299326 -2.4074752
17.100401 -15.337152 -2.3281348
16.939293 -14.947117 -2.3054371
16.504152 -14.100872 -2.3485329
38.98753 -59.155857 -1.0451984
41.986355 -64.461906 -0.50557691
38.021645 -56.604015 -0.79114097
69.388435 -114.91901 3.4243209
60.085239 -96.920326 2.5305843
41.155872 -61.350468 0.17836298
38.526917 -56.143902 -0.01290825
37.888157 -54.627747 0.067999989
34.4977 -48.135586 -0.29184127
31.487455 -42.404392 -0.62795961
16.096146 -14.540233 -3.0772896
27.485502 -34.735298 -1.0496005
25.927044 -31.750854 -1.2148608
24.595818 -29.198608 -1.3545184
23.299549 -26.73764 -1.5028459
21.389797 -23.238348 -1.785495
16.789562 -15.133964 -2.6311195
19.391703 -19.488148 -2.0359869
17.342134 -15.855337 -2.4015722
17.14612 -15.404801 -2.3842037
17.119543 -15.243338 -2.3309157
16.993019 -14.914366 -2.3003261
16.558115 -14.074721 -2.3430245
39.101093 -58.958748 -1.0328469
39.8708 -60.038624 -0.75497872
38.309277 -56.750435 -0.75808918
69.707886 -114.73507 3.4588091
41.192757 -61.377605 -0.01417778
50.25029 -77.629074 1.4451799
38.770947 -56.208797 0.016396526
38.094143 -54.63279 0.092140213
34.670799 -48.123306 -0.27173465
31.626562 -42.368038 -0.61234087
16.340803 -14.870908 -3.0390904
27.615156 -34.731133 -1.0340858
26.091591 -31.826706 -1.1923814
24.665098 -29.123346 -1.3486726
16.588751 -14.895121 -2.7841854
21.139717 -22.649452 -1.8408138
20.011106 -20.55612 -1.9877372
19.442184 -19.442081 -2.0317421
17.514408 -16.038126 -2.370399
17.227394 -15.435875 -2.3720605
17.219849 -15.306901 -2.3142748
17.030069 -14.874337 -2.2978301
16.605669 -14.0573 -2.3378057
39.337353 -58.52002 -0.81919873
38.287506 -56.216465 -0.76366782
41.224319 -61.283737 -0.20934457
60.687195 -96.550552 2.5950034
42.016148 -61.979252 0.28572202
38.960495 -56.072468 0.036117017
38.335251 -54.602646 0.11971386
34.880486 -48.089672 -0.24777529
31.800856 -42.31805 -0.59285957
29.455559 -37.907913 -0.84810156
16.550421 -15.004213 -2.9551144
16.521835 -14.852205 -2.9076111
16.589642 -14.867081 -2.8421793
23.503269 -26.683804 -1.4796814
16.850609 -15.107657 -2.6848323
20.038725 -20.427431 -1.9899
18.788933 -18.17098 -2.1741986
17.989206 -16.697256 -2.2767289
17.272861 -15.378427 -2.3692212
17.291382 -15.293864 -2.3056767
17.086742 -14.840115 -2.2923951
16.64953 -14.00835 -2.3350375
39.175468 -57.792248 -0.83956856
38.89941 -56.932655 -0.69095814
42.490082 -62.771175 0.14896975
50.950741 -77.686882 1.5264047
39.128239 -55.97287 0.053927954
38.566509 -54.626598 0.14718193
35.043213 -48.036484 -0.2297558
31.955391 -42.289665 -0.57518888
29.630178 -37.944489 -0.82619774
27.801908 -34.517319 -1.0178753
26.285412 -31.668568 -1.1739014
24.908287 -29.090157 -1.3199741
23.601055 -26.661524 -1.4684095
21.086584 -22.205084 -1.8656138
17.607632 -16.169413 -2.4826984
19.435545 -19.126574 -2.047334
18.004684 -16.602404 -2.2794611
17.337748 -15.374586 -2.3610263
17.365938 -15.306322 -2.2952392
17.182844 -14.890517 -2.2767458
16.69673 -13.98419 -2.3302662
41.672039 -62.282848 -0.74765557
39.315445 -57.575661 -0.82474375
38.724854 -56.149483 -0.71509945
74.547707 -120.82631 4.0567889
51.287312 -77.671631 1.5648612
39.363152 -55.943653 0.080675386
38.769165 -54.550419 0.1694255
35.246269 -48.011505 -0.20636211
32.134403 -42.266022 -0.55448222
16.53076 -14.829133 -3.0174618
27.95298 -34.503696 -1.000007
26.446852 -31.694231 -1.1533899
25.036385 -29.077749 -1.304659
16.826782 -14.933982 -2.7532141
21.20698 -22.230305 -1.8495234
20.141874 -20.290981 -1.9828528
19.656475 -19.341393 -2.0091915
18.134958 -16.683817 -2.2586892
17.540546 -15.583627 -2.3237228
17.427391 -15.283208 -2.2884941
17.286015 -14.938092 -2.2603204
16.766691 -13.984157 -2.320951
41.875221 -62.146366 -0.72539514
39.545609 -57.525497 -0.79935676
38.704906 -55.657646 -0.72021109
51.627609 -77.66114 1.6038347
39.715279 -56.121296 0.12437074
39.016396 -54.5527 0.19837429
35.435528 -47.961739 -0.18511292
32.316841 -42.24815 -0.53321826
29.905111 -37.818848 -0.79660714
16.773071 -15.021816 -2.9276767
16.735949 -14.858028 -2.8813179
16.803854 -14.872329 -2.8156552
23.81918 -26.607561 -1.4433886
17.074024 -15.122292 -2.6562896
20.361565 -20.494686 -1.9462215
19.473288 -18.883493 -2.0538502
17.821121 -16.032982 -2.3312848
17.562475 -15.493653 -2.3256164
17.539181 -15.341785 -2.270596
17.352829 -14.926064 -2.2522058
16.790224 -13.909465 -2.3224585
42.489628 -62.814823 -0.65732324
42.263977 -62.028446 -0.48278543
38.878044 -55.568905 -0.70133686
42.278126 -60.589516 0.29688993
40.326477 -56.799599 0.20622945
39.22752 -54.538624 0.22280082
35.611736 -47.930981 -0.16498344
32.467922 -42.212307 -0.51610488
30.076809 -37.847969 -0.77521449
28.209557 -34.427971 -0.97120214
16.750927 -14.772843 -2.8822308
25.266554 -29.033087 -1.2778875
23.909872 -26.572884 -1.4334328
17.065918 -14.998125 -2.6623485
18.055407 -16.531654 -2.4103439
19.590778 -18.942808 -2.0361085
17.79616 -15.877276 -2.3422008
17.6143 -15.466999 -2.3202822
17.566927 -15.277215 -2.2705514
17.416328 -14.921763 -2.2440581
16.840408 -13.890296 -2.3169498
42.91621 -63.076534 -0.61019963
41.124371 -59.483059 -0.61765182
39.342426 -55.950733 -0.64708757
44.427757 -64.642601 0.18083729
52.201 -77.515305 1.6677885
44.394352 -63.445801 0.78554612
39.454262 -54.50288 0.24866526
35.804306 -47.886314 -0.14320886
32.639942 -42.175419 -0.49651137
16.738148 -14.82284 -2.9927385
28.44805 -34.561455 -0.93838316
26.842812 -31.643841 -1.1066684
16.986706 -14.94568 -2.7905595
17.062922 -14.971906 -2.7224472
19.775476 -19.355955 -2.1457107
20.491953 -20.402472 -1.9337375
19.772152 -19.088636 -2.0061829
18.295635 -16.560398 -2.2441163
17.676327 -15.443086 -2.313473
17.641842 -15.275336 -2.2608247
17.479776 -14.903963 -2.2367005
16.906824 -13.884455 -2.3084314
42.761826 -62.320206 -0.62770844
42.695415 -61.831329 -0.43551934
39.912628 -56.537609 -0.57977837
44.468582 -64.229843 0.18199825
52.602966 -77.642487 1.7157576
40.6651 -56.519943 0.24100128
39.65921 -54.452675 0.27172136
36.022022 -47.905003 -0.11709622
32.817204 -42.165558 -0.47563729
30.353413 -37.740875 -0.74484855
16.993364 -15.038678 -2.9004946
16.94747 -14.863206 -2.8553061
17.061066 -14.952725 -2.7811413
24.125383 -26.525143 -1.4084277
18.572817 -17.234982 -2.3825891
20.212292 -19.793781 -1.9955795
19.111513 -17.874462 -2.1468623
17.7953 -15.629201 -2.3545537
17.693623 -15.354322 -2.3158739
17.686121 -15.231069 -2.2574663
17.509296 -14.839016 -2.2365942
16.963411 -13.869044 -2.3018103
42.810986 -61.963451 -0.62254167
42.62077 -61.260502 -0.44566873
41.290989 -58.562187 -0.41354537
44.640755 -64.080109 0.20020849
52.909172 -77.634529 1.750893
40.727726 -56.234543 0.24367689
39.852852 -54.406677 0.29354119
36.180626 -47.842999 -0.099683449
32.957508 -42.110355 -0.46023259
30.511461 -37.744877 -0.72573614
28.687235 -34.46796 -0.91212326
