# .PCD v0.7 - Point Cloud Data file format
VERSION 0.7
FIELDS x y z
SIZE 4 4 4
TYPE F F F
COUNT 1 1 1
WIDTH 1510
HEIGHT 1
VIEWPOINT 0 0 0 1 0 0 0
POINTS 1510
DATA ascii
-264.66672 -38.277973 134.20895
-258.98776 -38.022903 139.26277
-253.70758 -37.821304 144.49818
-248.66631 -37.655693 149.90141
-234.51541 -35.995529 147.04465
-202.77554 -31.330015 126.43498
-178.39102 -27.752478 110.70354
-159.72942 -25.043118 99.094574
-146.94666 -23.271683 92.41568
-132.16139 -21.072075 82.418732
-119.76648 -19.231176 74.084511
-109.50397 -17.715853 67.317787
-100.21809 -16.327204 60.930759
-92.393044 -15.17162 55.768734
-85.327644 -14.117252 50.942493
-78.928596 -13.154534 46.453991
-73.380203 -12.331852 42.744019
-68.652328 -11.648145 39.843685
-63.974171 -10.943122 36.544044
-60.170769 -10.409527 34.458519
-654.0097 -96.72007 403.24826
-267.63177 -38.785172 136.38887
-261.66406 -38.492577 141.33551
-256.0762 -38.249268 146.42917
-251.03387 -38.090206 151.93651
-234.00627 -35.961155 146.56255
-202.36639 -31.304951 126.03491
-179.02127 -27.899134 111.3362
-160.51141 -25.214872 99.924858
-146.70537 -23.262205 92.158516
-132.08305 -21.088505 82.342545
-119.61325 -19.23111 73.91629
-109.44038 -17.730213 67.258591
-100.10186 -16.329369 60.799782
-92.208138 -15.158213 55.535408
-85.206276 -14.114554 50.793251
-78.86631 -13.162359 46.39085
-73.423294 -12.36094 42.853252
-68.515976 -11.637181 39.645565
-63.953602 -10.956719 36.549313
-60.195816 -10.433163 34.554661
-270.50467 -39.273998 138.50391
-264.61011 -39.000267 143.62523
-258.33307 -38.655022 148.27066
-255.76108 -38.902779 156.02771
-234.72243 -36.12355 147.20204
-202.01917 -31.285603 125.69555
-179.10889 -27.949223 111.42411
-161.68675 -25.451862 101.16998
-146.58257 -23.270357 92.032936
-131.94971 -21.091774 82.20163
-119.50991 -19.237326 73.807732
-109.30383 -17.728054 67.104462
-99.973251 -16.326576 60.650337
-92.124115 -15.162391 55.443031
-85.127426 -14.118238 50.705021
-78.722099 -13.150925 46.195827
-73.285858 -12.34929 42.659595
-68.514572 -11.654003 39.680523
-63.813297 -10.941225 36.328861
-59.958004 -10.393258 34.129868
-738.84802 -104.86172 388.91913
-273.29193 -39.750751 140.55396
-267.42114 -39.487976 145.80789
-261.13718 -39.14909 150.56609
-259.36749 -39.5355 159.14357
-235.21747 -36.249847 147.64024
-202.99261 -31.488266 126.62251
-179.10361 -27.983484 111.41885
-163.03728 -25.720112 102.60126
-146.45969 -23.278469 91.907364
-131.64484 -21.063892 81.861816
-119.36402 -19.235674 73.647942
-109.18658 -17.729551 66.975586
-99.941154 -16.342525 60.631516
-92.020515 -15.162708 55.323513
-85.065971 -14.12549 50.643421
-78.717407 -13.168679 46.221264
-73.198402 -12.348384 42.54961
-68.463882 -11.659995 39.629704
-63.858765 -10.968075 36.454014
-59.957344 -10.409083 34.172134
-738.44147 -104.92989 388.48157
-702.37384 -104.42326 437.40872
-277.18918 -40.402912 143.43413
-272.11508 -40.275417 149.47374
-266.29169 -40.02256 154.80737
-262.19226 -40.045589 161.57776
-235.45891 -36.337147 147.84656
-203.08209 -31.544907 126.70241
-179.31798 -28.057661 111.63577
-163.77112 -25.883165 103.38277
-146.15359 -23.255741 91.580566
-131.63167 -21.090658 81.862724
-119.31552 -19.253649 73.608864
-109.10368 -17.739017 66.892967
-99.884186 -16.355036 60.581638
-92.006119 -15.182044 55.332935
-84.909019 -14.114488 50.44178
-78.673416 -13.179383 46.187401
-73.19117 -12.365865 42.576164
-68.312378 -11.644723 39.404869
-64.024803 -11.023517 36.806107
-59.834633 -10.397186 33.977791
-737.97302 -104.98196 388.01685
-725.42578 -104.73434 403.97119
-712.94324 -104.50272 420.06335
-702.03876 -104.49512 437.03998
-278.28958 -40.621136 144.21649
-272.93503 -40.452682 150.08432
-267.77307 -40.30793 156.0058
-263.1456 -40.249702 162.38553
-234.86101 -36.283112 147.28802
-202.94019 -31.560438 126.562
-179.35382 -28.099253 111.67334
-163.7907 -25.919645 103.41039
-146.0508 -23.267422 91.478203
-131.51591 -21.097225 81.744461
-119.06404 -19.232399 73.32132
-109.02439 -17.747814 66.814331
-99.655518 -16.332876 60.299347
-91.84417 -15.17083 55.13224
-84.864067 -14.125186 50.406265
-78.526886 -13.167558 45.991257
-73.186493 -12.382895 42.605301
-68.292694 -11.657677 39.410088
-64.099434 -11.057318 36.987534
-59.758522 -10.395344 33.873363
-737.07782 -104.96495 387.30209
-724.75897 -104.74978 403.38873
-712.90393 -104.61149 419.89932
-701.24774 -104.49031 436.35373
-282.08823 -41.254921 147.02625
-275.55716 -40.911243 152.11882
-269.88843 -40.692616 157.73152
-269.47601 -41.327087 167.87219
-234.51411 -36.267857 146.95975
-202.33542 -31.495493 125.97823
-179.32631 -28.127983 111.64797
-163.43279 -25.888189 103.04052
-145.86333 -23.262335 91.282852
-131.46857 -21.114656 81.705193
-119.00282 -19.24507 73.265732
-108.84847 -17.736851 66.611046
-99.566551 -16.336575 60.204464
-91.685646 -15.159036 54.935032
-84.73127 -14.116814 50.238457
-78.523338 -13.18462 46.018452
-73.083229 -12.377674 42.46936
-68.194489 -11.652239 39.275837
-64.08313 -11.06945 36.998508
-59.462898 -10.340665 33.334068
-724.33264 -104.81499 402.94229
-712.23407 -104.64015 419.29077
-700.1817 -104.458 435.45694
-285.33456 -41.810295 149.41537
-278.92056 -41.493511 154.73346
-272.90628 -41.228672 160.20125
-271.1203 -41.648903 169.28011
-234.62727 -36.334206 147.05086
-202.01692 -31.483486 125.66967
-179.28151 -28.158022 111.60615
-163.35165 -25.90913 102.9644
-145.66396 -23.258596 91.075874
-131.28098 -21.109806 81.505714
-118.82678 -19.239401 73.07312
-108.70226 -17.73436 66.449409
-99.467697 -16.341045 60.100475
-91.593124 -15.16293 54.836048
-84.662697 -14.12395 50.171146
-78.371948 -13.172908 45.817905
-73.039902 -12.387552 42.438148
-68.18634 -11.668908 39.305454
-63.859467 -11.036071 36.629494
-58.98439 -10.244464 32.440132
-288.75168 -42.387661 151.93727
-282.1698 -42.053284 157.2616
-276.03992 -41.778728 162.77037
-273.59464 -42.100956 171.41248
-235.06993 -36.450203 147.44504
-201.99771 -31.517376 125.64848
-178.92792 -28.130756 111.25443
-163.26083 -25.924501 102.87729
-145.43126 -23.245378 90.831398
-131.0614 -21.095818 81.267357
-118.80447 -19.259439 73.06649
-108.56455 -17.730701 66.296555
-99.37693 -16.344475 60.004509
-91.526817 -15.169621 54.771275
-84.582954 -14.126474 50.083683
-78.401573 -13.197093 45.899235
-72.90168 -12.37484 42.245636
-68.377174 -11.727935 39.680744
-63.826595 -11.044475 36.611065
-59.234722 -10.318977 32.978615
-292.32123 -42.995995 154.56731
-285.61905 -42.651951 159.94275
-279.44403 -42.379543 165.55978
-273.99838 -42.22176 171.74216
-234.59993 -36.419937 147.005
-202.33319 -31.616203 125.96809
-179.08627 -28.195965 111.41843
-162.90785 -25.897736 102.51556
-145.27086 -23.248741 90.66993
-131.12593 -21.137171 81.362625
-118.64674 -19.257244 72.897728
-108.45635 -17.735531 66.185173
-99.121124 -16.3183 59.68993
-91.413887 -15.169505 54.644684
-84.548813 -14.14079 50.0695
-78.318329 -13.199834 45.807899
-72.907173 -12.395412 42.297421
-68.46373 -11.765996 39.879124
-63.84869 -11.067591 36.701199
-59.212772 -10.330996 32.986832
-900.63129 -127.44828 457.54434
-886.64484 -127.32804 477.67441
-871.67126 -127.05763 497.11517
-857.04443 -126.84803 516.91876
-842.5412 -126.63998 536.55115
-296.01227 -43.624748 157.28755
-288.85367 -43.218197 162.45435
-283.01395 -43.00861 168.4865
-275.82352 -42.5755 173.30824
-234.2964 -36.417328 146.71783
-202.50356 -31.687183 126.12954
-180.13641 -28.415487 112.48
-162.84447 -25.921925 102.46014
-145.24104 -23.27552 90.653145
-130.78629 -21.104485 80.988205
-118.48779 -19.254847 72.728249
-108.34686 -17.740145 66.07283
-99.116241 -16.341253 59.714844
-91.299866 -15.169211 54.517464
-84.44133 -14.140088 49.946346
-78.199623 -13.195101 45.661072
-72.744118 -12.379487 42.069424
-68.307777 -11.750022 39.651661
-63.31522 -10.962812 35.757454
-59.248951 -10.356936 33.110867
-899.8479 -127.48019 456.85532
-885.47382 -127.3027 476.74405
-870.20752 -126.98719 495.97867
-855.84009 -126.81455 515.92847
-841.71906 -126.66344 535.81244
-299.96698 -44.293037 160.20708
-292.14542 -43.791775 165.0125
-286.68912 -43.653061 171.50145
-276.77036 -42.783154 174.11255
-234.31218 -36.465347 146.72362
-202.30385 -31.693205 125.93748
-181.64854 -28.713436 114.00674
-162.49594 -25.893929 102.10371
-144.97673 -23.258404 90.376396
-130.66319 -21.109896 80.865585
-118.31263 -19.2479 72.538254
-108.16142 -17.728815 65.862206
-98.998596 -16.340858 59.586731
-91.189278 -15.168389 54.393867
-84.300789 -14.131428 49.77256
-78.135902 -13.200915 45.599743
-72.684486 -12.384956 42.01199
-68.251144 -11.755206 39.597126
-62.985249 -10.903712 35.190266
-59.11084 -10.340479 32.888451
-898.32953 -127.39744 455.75638
-884.08215 -127.23633 475.69229
-869.26843 -126.986 495.19107
-854.85248 -126.80491 515.09601
-840.73901 -126.65387 534.97095
-304.26367 -45.013119 163.38474
-296.07852 -44.465324 168.07785
-290.44226 -44.308514 174.58267
-276.8927 -42.852871 174.20146
-234.312 -36.50816 146.71614
-202.76736 -31.809702 126.38175
-183.394 -29.050381 115.76833
-162.39894 -25.90836 102.01311
-144.84816 -23.263954 90.249916
-130.52386 -21.110703 80.723404
-118.14194 -19.24028 72.352982
-108.1199 -17.743694 65.835457
-98.904274 -16.343714 59.48867
-91.138245 -15.178309 54.353619
-84.271835 -14.14461 49.764359
-78.023163 -13.195233 45.459259
-72.67778 -12.400918 42.041035
-68.084793 -11.734799 39.347485
-63.058136 -10.936556 35.37146
-59.048557 -10.341167 32.81382
-897.21271 -127.38945 454.86099
-883.19318 -127.26055 474.92136
-868.05658 -126.96127 494.20584
-853.70502 -126.7885 514.13556
-839.36279 -126.60088 533.83051
-307.69342 -45.605793 165.90643
-301.58432 -45.396553 172.37746
-296.01178 -45.265251 179.16396
-277.47702 -43.004887 174.69035
-234.52879 -36.59269 146.90602
-202.99889 -31.891729 126.60442
-183.53925 -29.11496 115.92222
-162.17421 -25.904182 101.78952
-144.5741 -23.246897 89.965012
-130.30779 -21.100695 80.495033
-118.06187 -19.252766 72.282074
-107.96726 -17.740143 65.670097
-98.741577 -16.335838 59.302773
-91.077515 -15.188869 54.304394
-84.252022 -14.162135 49.774815
-78.040886 -13.219562 45.530533
-72.830017 -12.453827 42.341248
-68.039398 -11.743654 39.317169
-63.215893 -10.991221 35.718082
-59.02388 -10.352823 32.820312
-896.40619 -127.41766 454.15839
-881.97479 -127.22773 473.96292
-867.2041 -126.98135 493.46317
-852.58685 -126.76761 513.20581
-838.33276 -126.59216 532.94641
-308.63364 -45.807392 166.56505
-305.84299 -46.128532 175.69551
-299.43216 -45.873676 181.96765
-278.24149 -43.183792 175.33742
-234.41748 -36.619839 146.79765
-202.97945 -31.928822 126.58738
-183.57574 -29.158672 115.96737
-161.97774 -25.903044 101.59582
-144.47942 -23.260427 89.878746
-130.24454 -21.117214 80.443977
-117.92466 -19.253014 72.140518
-107.77906 -17.728317 65.457939
-98.67926 -16.346413 59.251354
-90.982964 -15.191396 54.205776
-84.109215 -14.153084 49.599529
-77.88813 -13.206602 45.330708
-72.817764 -12.469923 42.365719
-67.852486 -11.719692 39.035431
-63.130318 -10.988665 35.608631
-58.957485 -10.353601 32.742146
-894.87866 -127.34978 453.0267
-880.59943 -127.18018 472.89667
-865.32068 -126.85617 492.04816
-851.31671 -126.73228 512.16388
-837.15259 -126.56908 531.94763
-312.95633 -46.542297 169.75427
-308.85382 -46.667023 178.02831
-304.07874 -46.685421 185.78416
-278.23032 -43.238552 175.31003
-233.26433 -36.475079 145.73856
-202.73859 -31.930563 126.35856
-183.3743 -29.163282 115.77403
-161.63866 -25.878616 101.25296
-144.31134 -23.262529 89.712608
-130.02592 -21.106777 80.214149
-117.80105 -19.257401 72.017921
-107.64441 -17.728252 65.317009
-98.533806 -16.341995 59.090408
-90.883018 -15.194148 54.102348
-84.051369 -14.162877 49.554916
-77.817314 -13.212251 45.26376
-72.734421 -12.47163 42.274765
-67.069962 -11.562569 37.705822
-63.040852 -10.986263 35.495735
-58.828857 -10.340482 32.544727
-893.78674 -127.32788 452.17371
-879.73627 -127.19069 472.16742
-864.49097 -126.87066 491.33267
-850.16931 -126.69791 511.22614
-836.06738 -126.54285 531.0351
-317.24429 -47.26696 172.92181
-312.62442 -47.321175 180.96304
-308.06973 -47.386139 189.06104
-278.48581 -43.33115 175.51706
-233.73396 -36.596989 146.16228
-202.88889 -31.994423 126.50512
-183.18852 -29.166235 115.59609
-161.33684 -25.85675 100.94814
-144.09074 -23.251543 89.486946
-129.88223 -21.106859 80.069427
-117.66729 -19.256824 71.88044
-107.51934 -17.727177 65.185493
-98.435951 -16.344288 58.990269
-90.754028 -15.188492 53.953815
-84.055107 -14.183075 49.598431
-77.649803 -13.195033 45.039642
-72.62439 -12.465327 42.134838
-67.381813 -11.649787 38.302288
-63.00322 -10.99391 35.474499
-58.88129 -10.368897 32.700634
-892.72443 -127.32705 451.30994
-878.48517 -127.16106 471.17725
-863.38708 -126.86143 490.41864
-849.15234 -126.70075 510.35687
-834.92535 -126.52532 530.06561
-321.31152 -47.965389 175.91791
-316.27905 -47.965191 183.8018
-311.64822 -48.028473 191.99333
-279.41965 -43.542305 176.31232
-233.17599 -36.551849 145.64758
-202.52675 -31.975546 126.16161
-182.75589 -29.130558 115.17138
-161.19472 -25.867281 100.81498
-143.89915 -23.249374 89.295784
-129.72447 -21.107706 79.911934
-117.50047 -19.253107 71.706421
-107.30312 -17.711405 64.941292
-98.346428 -16.350983 58.906292
-90.670898 -15.194725 53.875816
-83.81588 -14.155301 49.283245
-77.577583 -13.200449 44.971878
-72.489677 -12.455831 41.959526
-67.493446 -11.69421 38.552498
-62.943066 -10.998417 35.418064
-58.780773 -10.362613 32.560528
-891.46753 -127.2893 450.34805
-877.35004 -127.13979 470.27045
-862.34198 -126.85222 489.55426
-847.73816 -126.63433 509.23001
-833.68353 -126.48354 529.03461
-325.56445 -48.691319 179.05479
-320.19318 -48.648842 186.84665
-315.43057 -48.702087 195.09578
-280.19177 -43.724083 176.96861
-232.79402 -36.533554 145.29483
-203.22198 -32.135471 126.83215
-182.83055 -29.181238 115.25767
-161.03783 -25.873184 100.66566
-143.82034 -23.265965 89.230019
-129.5088 -21.096169 79.686188
-117.29755 -19.241026 71.487244
-107.26987 -17.72961 64.931175
-98.222488 -16.349539 58.774315
-90.647018 -15.211766 53.881031
-83.77758 -14.168101 49.267887
-77.923134 -13.294061 45.563484
-72.391197 -12.45323 41.843163
-67.480095 -11.709449 38.579945
-62.931297 -11.013252 35.450024
-58.784801 -10.380574 32.62561
-890.03571 -127.22585 449.28613
-876.01288 -127.08852 469.24133
-861.20685 -126.82943 488.6326
-846.7196 -126.62791 508.37125
-832.48767 -126.44859 528.03741
-329.65234 -49.393002 182.06705
-324.19965 -49.348892 189.96359
-317.85864 -49.157059 197.07799
-280.64337 -43.853214 177.3465
-233.29091 -36.66338 145.74536
-205.03154 -32.487068 128.57137
-182.53934 -29.1681 114.97661
-160.72366 -25.851107 100.35073
-143.50259 -23.239138 88.89946
-129.39709 -21.103933 79.582275
-117.19566 -19.248106 71.392479
-107.0969 -17.720783 64.741898
-98.059265 -16.34034 58.589958
-90.659225 -15.23622 53.938229
-83.738525 -14.180795 49.251846
-77.852837 -13.298965 45.498074
-71.678131 -12.315361 40.699554
-67.418182 -11.713771 38.522327
-62.842484 -11.010178 35.338669
-58.613483 -10.356284 32.343163
-831.32574 -126.41 527.07379
-336.38193 -50.508919 187.05779
-330.16318 -50.360527 194.62259
-321.06726 -49.736633 199.70724
-280.15451 -43.82365 176.90913
-233.58252 -36.756149 146.00909
-207.31314 -32.918148 130.76299
-182.30205 -29.162113 114.74923
-160.54912 -25.851938 100.1833
-143.38657 -23.247129 88.791656
-129.3539 -21.122795 79.55732
-116.9765 -19.231396 71.152885
-106.96813 -17.719105 64.608444
-97.957764 -16.342058 58.487877
-90.526947 -15.230065 53.787937
-83.595535 -14.17065 49.078239
-77.820305 -13.310855 45.490788
-71.815155 -12.363385 40.974941
-67.406975 -11.728567 38.551983
-62.787064 -11.013903 35.287308
-58.604923 -10.370337 32.381535
-338.87225 -50.962444 188.87285
-333.71643 -50.99165 197.38177
-326.36163 -50.661396 204.06029
-279.0665 -43.697792 175.95079
-233.5744 -36.801231 145.9995
-208.20534 -33.113792 131.62433
-182.0985 -29.164326 114.55771
-160.43082 -25.86488 100.0773
-143.10919 -23.227673 88.507805
-129.03 -21.091167 79.207367
-116.85227 -19.234276 71.032013
-106.95146 -17.740696 64.621742
-97.946053 -16.363041 58.510075
-90.574326 -15.261844 53.896709
-83.572678 -14.186855 49.088146
-77.627884 -13.289654 45.233356
-71.947021 -12.41159 41.2458
-67.232346 -11.707397 38.296642
-62.68198 -11.007084 35.146824
-58.607101 -10.388064 32.445438
-342.42227 -51.588017 191.47714
-337.548 -51.672653 200.3571
-330.03763 -51.327942 207.07338
-278.57056 -43.673214 175.50711
-233.62376 -36.858879 146.04279
-207.85109 -33.097755 131.29222
-181.83926 -29.158987 114.31144
-160.23798 -25.866451 99.893417
-142.99736 -23.240143 88.408714
-128.92906 -21.102713 79.11953
-116.67999 -19.229607 70.854683
-106.80941 -17.739437 64.476471
-97.85141 -16.368963 58.423019
-90.393631 -15.248491 53.683701
-83.722572 -14.240584 49.361565
-77.499496 -13.283377 45.080818
-71.941353 -12.430708 41.290516
-67.037704 -11.682734 38.00956
-62.603195 -11.007508 35.059799
-58.56155 -10.395347 32.419064
-900.84448 -137.68503 576.02527
-346.72586 -52.330616 194.64716
-341.43478 -52.360596 203.37817
-330.845 -51.523373 207.7155
-278.45074 -43.707947 175.39149
-233.08723 -36.814777 145.55252
-207.73756 -33.120735 131.19128
-181.67809 -29.168671 114.16379
-159.96185 -25.851213 99.622101
-142.78262 -23.232094 88.195244
-128.70784 -21.090202 78.890839
-116.59411 -19.239895 70.782471
-97.741974 -16.370607 58.314274
-89.884644 -15.166691 53.00013
-83.750954 -14.267762 49.450417
-76.790565 -13.150906 44.005253
-71.83963 -12.427527 41.172337
-67.115929 -11.719165 38.20327
-62.512138 -11.004041 34.947178
-58.460655 -10.388242 32.279865
-320.12119 -45.23024 131.48495
-318.75806 -45.725677 140.86609
-352.0817 -53.245338 198.60011
-346.38086 -53.224522 207.22931
-335.2717 -52.31559 211.34937
-276.59174 -43.456261 173.76505
-233.17804 -36.879688 145.63531
-207.44965 -33.116131 130.92389
-181.46132 -29.170801 113.96124
-159.74348 -25.848267 99.413002
-142.68828 -23.247915 88.117561
-128.70868 -21.120884 78.923317
-116.39916 -19.230965 70.579071
-106.46877 -17.724487 64.113228
-97.664337 -16.380033 58.251896
-89.9795 -15.209676 53.181797
-83.559715 -14.250194 49.212631
-76.867355 -13.188733 44.17944
-71.749825 -12.428136 41.077667
-67.0308 -11.719557 38.111927
-62.44701 -11.007793 34.887753
-58.384811 -10.388277 32.194996
-321.10541 -45.428825 132.00314
-315.7356 -45.322411 138.86476
-310.64062 -45.260941 145.9523
-305.689 -45.216003 153.056
-300.73273 -45.171246 160.17007
-295.36969 -45.068409 167.0731
-289.64801 -44.901638 173.60498
-276.63779 -43.518482 173.79491
-233.91901 -37.05241 146.31227
-206.86838 -33.058353 130.37601
-181.1833 -29.160006 113.69759
-159.50897 -25.840479 99.186691
-142.49231 -23.243368 87.926537
-128.4642 -21.104067 78.6688
-116.18932 -19.217609 70.35585
-106.40816 -17.737764 64.073067
-97.552933 -16.381372 58.141972
-89.672592 -15.169097 52.787846
-83.426125 -14.243458 49.059086
-76.998482 -13.237296 44.438301
-71.696098 -12.435697 41.041523
-66.964806 -11.723253 38.051865
-62.460613 -11.029116 34.973534
-58.282906 -10.380974 32.055252
-316.94037 -45.557522 139.56528
-299.65274 -45.054516 159.32191
-359.52075 -55.475204 217.48894
-288.84744 -44.825977 172.92278
-275.78384 -43.430611 173.04382
-233.63612 -37.051556 146.05539
-206.81831 -33.092438 130.33812
-180.92651 -29.152927 113.45571
-159.27431 -25.8326 98.960381
-142.18802 -23.218931 87.615707
-128.28145 -21.098785 78.486755
-116.12043 -19.231255 70.306351
-106.34638 -17.750887 64.032181
-97.611824 -16.416903 58.264004
-89.807007 -15.219105 53.025166
-83.309349 -14.240314 48.932087
-76.940308 -13.245052 44.397102
-71.608841 -12.435833 40.949661
-66.850563 -11.715967 37.907104
-62.443111 -11.043201 35.001869
-58.295948 -10.401775 32.145683
-318.10071 -45.783302 140.24094
-371.32629 -56.49234 212.83717
-363.73026 -56.219315 220.76349
-340.74207 -53.405643 215.80103
-275.81519 -43.487289 173.06279
-234.61879 -37.263336 146.95428
-206.61697 -33.097797 130.15459
-180.72372 -29.15313 113.26781
-159.04568 -25.823872 98.740562
-141.95605 -23.205833 87.383568
-128.18814 -21.108604 78.407806
-116.01621 -19.236612 70.212227
-106.17168 -17.740427 63.843899
-97.218681 -16.360401 57.77063
-89.761398 -15.230922 53.003273
-82.770988 -14.146956 48.167259
-76.81723 -13.237639 44.25087
-71.54158 -12.439316 40.888874
-66.897453 -11.744573 38.046001
-62.292728 -11.024847 34.777336
-58.239594 -10.404679 32.094772
-376.84933 -57.439301 216.91273
-367.90955 -56.964306 224.01175
-343.41766 -53.912262 217.98955
-276.04501 -43.580627 173.25444
-237.73399 -37.84201 149.80086
-206.37851 -33.099319 129.93716
-180.46371 -29.145521 113.02427
-158.78545 -25.811455 98.489029
-141.7993 -23.208513 87.238052
-127.9614 -21.095116 78.175797
-115.80338 -19.222744 69.987518
-105.97067 -17.726297 63.624577
-97.123741 -16.365128 57.685108
-89.673019 -15.235331 52.923645
-82.77758 -14.169774 48.226803
-76.808617 -13.256273 44.290184
-71.420021 -12.431908 40.741074
-66.813499 -11.744343 37.956558
-62.273918 -11.038752 34.804855
-58.193558 -10.411206 32.069122
-382.67014 -58.440201 221.20642
-374.59726 -58.121555 229.22929
-343.72296 -54.033684 218.21826
-276.11273 -43.65023 173.30531
-240.14354 -38.304592 152.0041
-206.10289 -33.096973 129.6857
-180.35019 -29.166103 112.92972
-158.62491 -25.819057 98.344994
-141.63435 -23.211515 87.085304
-127.76784 -21.089603 77.985374
-115.70426 -19.232323 69.905205
-105.8997 -17.739243 63.576359
-96.832481 -16.331776 57.336071
-89.541603 -15.232254 52.786186
-82.707169 -14.177705 48.17458
-76.828613 -13.28243 44.379051
-71.473846 -12.46489 40.8922
-66.693512 -11.736968 37.807182
-62.130154 -11.024137 34.601486
-58.100101 -10.407219 31.953556
-389.23874 -59.558613 226.06036
-379.22781 -58.944023 232.83096
-343.82208 -54.117439 218.27815
-276.38391 -43.750996 173.53441
-239.9404 -38.319008 151.82274
-205.88445 -33.102005 129.48874
-180.06577 -29.154135 112.66229
-158.34058 -25.802259 98.069016
-141.38959 -23.198008 86.843193
-127.66376 -21.099222 77.89782
-115.65079 -19.249174 69.877556
-105.83362 -17.751734 63.532848
-96.906075 -16.370564 57.481243
-89.487968 -15.243933 52.757862
-82.799896 -14.219004 48.3661
-76.681786 -13.271187 44.20023
-71.318192 -12.449934 40.688396
-66.608147 -11.736497 37.716923
-62.13998 -11.045003 34.684822
-57.981064 -10.395917 31.783482
-396.89587 -60.857838 231.72256
-386.88528 -60.264286 238.80911
-344.63516 -54.323296 218.9277
-276.8782 -43.892723 173.95705
-239.43752 -38.285122 151.36894
-205.62885 -33.103157 129.25772
-179.85794 -29.158127 112.47458
-158.11122 -25.797462 97.853577
-141.19957 -23.196489 86.664513
-127.46771 -21.093302 77.705948
-115.46828 -19.242826 69.694489
-105.62354 -17.737373 63.30637
-96.821228 -16.378906 57.414516
-89.3731 -15.244362 52.645561
-82.621567 -14.204206 48.152645
-76.597656 -13.274854 44.125221
-71.304672 -12.468042 40.728138
-66.50248 -11.732496 37.594749
-62.039993 -11.040897 34.565773
-57.958179 -10.409381 31.810892
-401.46112 -61.661766 235.07793
-392.21152 -61.204605 242.95673
-343.10223 -54.137848 217.64075
-277.88803 -44.118389 174.8289
-238.85405 -38.234394 150.84171
-205.40456 -33.107319 129.05699
-179.59166 -29.149469 112.22741
-157.78029 -25.772213 97.529732
-141.06015 -23.202431 86.540405
-127.34018 -21.098606 77.592628
-115.47274 -19.271015 69.739723
-105.47722 -17.734116 63.160549
-96.665588 -16.371567 57.249493
-89.335815 -15.25957 52.642208
-82.588531 -14.219011 48.156212
-76.517433 -13.278198 44.053925
-71.245667 -12.474854 40.688732
-66.494118 -11.749941 37.643421
-62.048149 -11.061567 34.648022
-57.938118 -10.422585 31.841017
-408.66534 -62.885536 240.40553
-401.0036 -62.706802 249.8288
-342.61972 -54.121754 217.22353
-277.97162 -44.185238 174.89699
-238.84572 -38.279396 150.84007
-205.12274 -33.098862 128.8006
-179.42526 -29.156261 112.07975
-157.50175 -25.754356 97.260094
-140.75566 -23.176056 86.2323
-127.46747 -21.150461 77.775757
-115.24158 -19.25209 69.493286
-105.37551 -17.738186 63.070408
-96.665947 -16.394423 57.294506
-89.248184 -15.263055 52.564575
-82.489311 -14.218513 48.057148
-76.52594 -13.299775 44.121666
-71.174103 -12.477715 40.62532
-66.364281 -11.738146 37.472092
-61.939812 -11.053363 34.506905
-57.878311 -10.424975 31.788019
-416.64725 -64.241257 246.30833
-406.69855 -63.712421 254.26474
-343.41446 -54.321491 217.86093
-276.97845 -44.073967 174.03049
-238.46915 -38.264172 150.50327
-204.73537 -33.074486 128.44441
-179.24582 -29.163103 111.92122
-157.16904 -25.72867 96.935211
-140.57054 -23.173605 86.059044
-127.11002 -21.112322 77.394722
-115.12301 -19.256594 69.388557
-105.44153 -17.777069 63.200718
-96.489716 -16.382986 57.102718
-89.117737 -15.25905 52.429295
-82.419373 -14.225607 48.006557
-76.427277 -13.299199 44.022305
-71.048363 -12.469622 40.475071
-66.37001 -11.75902 37.547695
-61.841831 -11.048786 34.390209
-57.814114 -10.427418 31.73131
-426.18915 -65.855347 253.37029
-414.17886 -65.016647 260.10013
-343.47327 -54.40353 217.89005
-274.81784 -43.768463 172.15042
-238.00668 -38.237045 150.0891
-204.54178 -33.086548 128.27553
-179.07616 -29.174046 111.77465
-156.9332 -25.722761 96.716286
-140.50366 -23.195005 86.019615
-126.97102 -21.117355 77.272331
-114.89603 -19.241739 69.15361
-105.57726 -17.831469 63.42477
-96.419472 -16.394535 57.059128
-89.035622 -15.266498 52.367027
-82.290634 -14.221493 47.870899
-76.272102 -13.287525 43.837231
-71.080101 -12.498285 40.594849
-66.261459 -11.754577 37.423798
-61.784107 -11.055013 34.354477
-57.631706 -10.401652 31.441889
-431.9364 -66.854431 257.60611
-419.08951 -65.894791 263.92099
-342.44232 -54.296677 217.02174
-275.63828 -43.959827 172.86034
-237.70956 -38.232586 149.82602
-204.20874 -33.069141 127.97189
-178.59097 -29.12402 111.30788
-156.62886 -25.700186 96.421295
-140.23981 -23.176088 85.758072
-126.72252 -21.098122 77.018097
-114.82254 -19.253445 69.103203
-105.3362 -17.808105 63.15638
-96.304054 -16.39407 56.948574
-88.927284 -15.26581 52.261787
-82.189163 -14.220641 47.770714
-76.210426 -13.29393 43.795361
-70.876511 -12.471469 40.31073
-66.161057 -11.749722 37.307243
-61.733658 -11.060833 34.325359
-57.7551 -10.449704 31.759964
-441.00043 -68.398979 264.30792
-423.53741 -66.709099 267.37405
-341.32117 -54.182526 216.07756
-279.93887 -44.747784 176.5932
-237.28981 -38.212769 149.4521
-203.52882 -32.995926 127.33829
-178.43951 -29.138311 111.18158
-156.37038 -25.690037 96.178673
-140.0627 -23.177151 85.597923
-126.68417 -21.122375 77.014923
-114.71358 -19.261576 69.014908
-105.11989 -17.792715 62.926277
-96.194153 -16.397665 56.852364
-88.825081 -15.269176 52.172283
-82.111496 -14.227532 47.713818
-76.054031 -13.282011 43.609413
-70.841629 -12.485233 40.319752
-66.082314 -11.752304 37.2383
-61.689365 -11.070443 34.316952
-57.614075 -10.434328 31.555655
-452.12439 -70.2743 272.54694
-434.62305 -68.607819 276.0408
-340.90216 -54.181171 215.71519
-283.24011 -45.364971 179.45886
-237.04604 -38.220394 149.23923
-203.61533 -33.054768 127.43958
-178.1653 -29.128235 110.92975
-156.05347 -25.667231 95.873856
-139.85086 -23.169872 85.39785
-126.48754 -21.114803 76.824821
-114.75034 -19.296556 69.1045
-104.79314 -17.753777 62.551006
-96.108131 -16.404747 56.786541
-88.582443 -15.24187 51.878735
-82.00309 -14.226605 47.608013
-76.053436 -13.303221 43.670181
-70.85894 -12.509742 40.414486
-66.022713 -11.758263 37.200554
-61.514717 -11.047555 34.05785
-57.519142 -10.429336 31.440363
-460.52704 -71.720642 278.75165
-444.48596 -70.315903 283.74356
-340.94623 -54.261112 215.73524
-283.67126 -45.499847 179.83255
-236.64516 -38.203854 148.88428
-203.23051 -33.033329 127.09025
-177.87636 -29.117956 110.66628
-155.8353 -25.664473 95.675476
-139.71471 -23.178576 85.284271
-126.34354 -21.119055 76.69944
-114.65855 -19.308205 69.038826
-104.4012 -17.703268 62.094391
-95.958771 -16.400383 56.637897
-88.514664 -15.252512 51.840263
-81.905975 -14.229452 47.523491
-75.861649 -13.283597 43.429573
-70.692795 -12.493887 40.20335
-65.942482 -11.760626 37.130707
-61.439396 -11.049785 33.992264
-57.391415 -10.417287 31.264214
-472.51001 -73.743416 287.6265
-449.99606 -71.308487 288.0311
-341.27609 -54.384968 215.9926
-283.87631 -45.593246 180.01077
-236.25723 -38.186581 148.54114
-203.06068 -33.04726 126.94712
-177.59895 -29.10733 110.41263
-155.53763 -25.645176 95.392387
-139.58525 -23.186735 85.177025
-126.16515 -21.115025 76.532166
-114.35366 -19.276638 68.708824
-104.40191 -17.729641 62.144859
-95.833328 -16.399513 56.519875
-88.451599 -15.262849 51.806145
-81.900734 -14.250809 47.575428
-75.876053 -13.308287 43.515999
-70.611618 -12.496154 40.13287
-65.819679 -11.751867 36.98106
-61.397152 -11.058952 33.98621
-57.295464 -10.412096 31.148375
-486.1008 -74.780952 279.89331
-482.21112 -75.396889 294.80179
-456.06357 -72.389862 292.75793
-341.69525 -54.520027 216.3253
-283.09445 -45.515434 179.3325
-235.8571 -38.164326 148.1873
-202.72092 -33.028595 126.64
-177.174 -29.067923 110.00999
-155.37971 -25.649376 95.255592
-139.42114 -23.186548 85.029709
-125.95274 -21.102726 76.323029
-114.15498 -19.26417 68.507607
-104.48544 -17.771149 62.300491
-95.750809 -16.405994 56.457626
-88.375481 -15.269118 51.750584
-81.795334 -14.249359 47.472881
-75.693306 -13.288151 43.283634
-70.502281 -12.490822 40.011375
-65.747169 -11.753775 36.918282
-61.343575 -11.064315 33.955193
-57.188873 -10.403165 31.007183
-496.71045 -76.566216 287.31503
-489.50037 -76.675102 300.17075
-459.77472 -73.096794 295.63049
-341.79956 -54.610886 216.39713
-282.51382 -45.478668 178.82977
-235.4512 -38.146809 147.82967
-202.4437 -33.026199 126.39616
-176.83728 -29.048944 109.69979
-155.20039 -25.653849 95.100693
-139.32179 -23.20241 84.959969
-125.92776 -21.129934 76.339523
-113.20528 -19.107775 67.385918
-104.41873 -17.785801 62.267994
-95.729134 -16.42798 56.485931
-88.286491 -15.275546 51.684155
-81.678032 -14.248053 47.360283
-75.365814 -13.238408 42.827095
-70.430748 -12.496642 39.9631
-65.710991 -11.766682 36.930321
-61.236576 -11.05905 33.832062
-57.214523 -10.429729 31.143702
-507.8078 -78.428169 295.08328
-500.79077 -78.599319 308.52295
-463.30121 -73.769691 298.36069
-340.68143 -54.492958 215.46109
-282.35181 -45.509892 178.69167
-234.94099 -38.108242 147.37675
-202.08672 -33.007118 126.07544
-176.51044 -29.029417 109.3988
-154.9431 -25.641922 94.861702
-139.14519 -23.201929 84.802536
-125.82759 -21.141031 76.266006
-113.59373 -19.212023 67.913017
-104.37698 -17.803989 62.265629
-95.526405 -16.41136 56.264126
-88.18454 -15.277896 51.596371
-81.617706 -14.257755 47.331108
-75.544937 -13.299924 43.180538
-70.331337 -12.494899 39.863987
-65.601746 -11.76124 36.807335
-61.118595 -11.049994 33.684242
-57.130856 -10.427792 31.055298
-521.06287 -80.639008 304.3732
-513.03461 -80.683067 317.58322
-463.94321 -73.96833 298.8277
-342.13342 -54.806286 216.64806
-281.76141 -45.467915 178.18167
-234.49736 -38.081272 146.98595
-201.90933 -33.01989 125.92779
-176.27095 -29.025661 109.18645
-154.8783 -25.665533 94.827866
-138.98909 -23.205311 84.668465
-125.60365 -21.128408 76.048042
-113.80145 -19.281071 68.217957
-104.19954 -17.794992 62.087864
-95.378708 -16.406082 56.118431
-88.099762 -15.283925 51.534016
-81.521706 -14.259826 47.248665
-75.505417 -13.313001 43.184143
-70.231194 -12.493044 39.764656
-65.568634 -11.773841 36.822369
-61.073711 -11.058787 33.676556
-57.088722 -10.436385 31.051922
-444.85739 -67.461304 234.69231
-531.6828 -82.440109 311.79196
-523.77618 -82.533951 325.5184
-465.93494 -74.395996 300.35168
-344.93829 -55.352024 218.95158
-281.2438 -45.441879 177.73633
-234.03879 -38.05452 146.58247
-201.49132 -32.992546 125.5509
-175.95229 -29.009893 108.89637
-154.56357 -25.645233 94.531952
-138.84248 -23.212523 84.548683
-125.49248 -21.139299 75.965744
-113.56377 -19.264349 67.976936
-104.05236 -17.79369 61.953373
-95.279243 -16.412271 56.042824
-87.953995 -15.278534 51.388134
-81.419235 -14.261886 47.160885
-75.343109 -13.300047 42.99485
-70.125412 -12.491173 39.660473
-65.37645 -11.750097 36.556335
-61.067513 -11.078301 33.748657
-56.999741 -10.434353 30.959259
-444.42133 -67.473969 234.31493
-436.18683 -67.263741 244.23215
-428.98669 -67.218384 254.8717
-421.33643 -67.110649 265.32977
-346.8345 -55.742092 220.5061
-280.76672 -45.419216 177.3262
-233.63939 -38.035126 146.23299
-201.28748 -33.000687 125.37917
-175.66512 -28.997547 108.63743
-154.56049 -25.680395 94.565132
-138.91396 -23.258984 84.670059
-125.06251 -21.086983 75.507263
-113.47144 -19.274601 67.913124
-103.93051 -17.795948 61.849281
-95.148369 -16.410524 55.921394
-87.903015 -15.29185 51.376266
-81.321571 -14.263698 47.07745
-75.235405 -13.298028 42.890381
-70.119667 -12.51113 39.723404
-65.326729 -11.758854 36.542747
-60.977028 -11.076124 33.655842
-56.970161 -10.446289 30.98341
-559.12396 -87.037384 331.01074
-550.01331 -87.011986 344.92914
-462.93723 -74.087166 297.93002
-352.37265 -56.747112 225.06812
-280.28775 -45.396217 176.91544
-233.44539 -38.051655 146.07208
-200.96944 -32.988533 125.09833
-175.37645 -28.98493 108.37744
-154.72655 -25.747065 94.778885
-138.75345 -23.261744 84.533264
-124.99835 -21.1052 75.478729
-113.37784 -19.284679 67.848495
-103.80748 -17.798033 61.744469
-95.035057 -16.412468 55.824825
-87.833221 -15.30125 51.337978
-81.153938 -14.250338 46.888264
-75.110367 -13.29216 42.758659
-70.033363 -12.512615 39.649845
-65.245506 -11.760242 36.473537
-60.842007 -11.06308 33.478615
-56.870197 -10.44045 30.865215
-572.90491 -89.354111 340.65674
-564.28503 -89.447418 355.48892
-461.80457 -73.993011 297.00775
-354.85013 -57.238235 227.10374
-279.52206 -45.323967 176.25636
-233.019 -38.027538 145.69908
-200.64986 -32.976082 124.81643
-175.15218 -28.984041 108.18339
-154.18269 -25.682238 94.239014
-138.5293 -23.252485 84.325935
-124.85139 -21.107508 75.353806
-113.26318 -19.290674 67.758667
-103.64546 -17.792259 61.589409
-94.957733 -16.421921 55.778282
-87.708832 -15.299129 51.2216
-81.072037 -14.255665 46.830189
-75.017754 -13.29361 42.679935
-69.882401 -12.499256 39.467064
-65.163689 -11.761539 36.403965
-60.750401 -11.060707 33.385162
-56.79752 -10.441594 30.803431
-589.14264 -92.077652 352.0278
-578.10236 -91.821503 365.70401
-460.49231 -73.87426 295.94345
-354.90677 -57.325752 227.14114
-279.04459 -45.304569 175.84821
-232.55229 -37.999302 145.29108
-200.35999 -32.971577 124.56548
-175.02539 -29.003223 108.08994
-153.62773 -25.617323 93.690086
-137.43851 -23.080868 83.153412
-124.69443 -21.109737 75.220718
-113.10005 -19.288818 67.612694
-103.5704 -17.805744 61.55175
-94.872589 -16.431334 55.725544
-87.595169 -15.300757 51.12521
-80.966042 -14.25717 46.740322
-74.952126 -13.302465 42.649586
-69.837227 -12.511623 39.469658
-65.106758 -11.770058 36.384998
-60.682827 -11.065475 33.343452
-56.622551 -10.417912 30.539175
-606.854 -95.038445 364.43967
-594.47443 -94.612709 377.82147
-460.33759 -73.942245 295.7901
-354.57358 -57.343281 226.85762
-278.39346 -45.251774 175.29002
-231.93747 -37.942097 144.74754
-199.99026 -32.950279 124.23753
-174.77652 -28.997915 107.87213
-153.48918 -25.627615 93.582138
-137.56674 -23.138371 83.341293
-124.50455 -21.103817 75.046745
-112.84562 -19.267187 67.351257
-103.48248 -17.815111 61.494831
-94.811577 -16.444334 55.703045
-87.451103 -15.294548 50.981953
-80.848007 -14.254729 46.628815
-74.874512 -13.307395 42.596523
-69.732895 -12.509094 39.367645
-64.96254 -11.756599 36.204475
-60.63356 -11.07366 33.333054
-56.590473 -10.429492 30.561787
-626.67688 -98.339348 378.34225
-610.71814 -97.382706 389.84418
-460.35635 -74.033806 295.77496
-354.30869 -57.368099 226.63185
-277.92419 -45.226799 174.89
-231.82056 -37.969292 144.65858
-199.79268 -32.957024 124.07304
-174.60255 -29.004028 107.72919
-153.33868 -25.633625 93.459831
-137.61943 -23.179733 83.442795
-124.48416 -21.129028 75.069801
-112.85371 -19.295996 67.412239
-103.3438 -17.812634 61.369129
-94.590622 -16.422606 55.458153
-87.33065 -15.29194 50.86956
-80.735062 -14.252069 46.521832
-74.785225 -13.30844 42.521152
-69.553619 -12.487984 39.134178
-64.89875 -11.761138 36.165375
-60.486526 -11.056563 33.130676
-56.506588 -10.426764 30.47438
-643.66412 -101.20559 390.22662
-627.46008 -100.25563 402.22629
-459.22922 -73.945671 294.85849
-354.25552 -57.437721 226.58102
-277.41565 -45.201942 174.45735
-231.27864 -37.927776 144.18408
-199.47313 -32.947372 123.79634
-174.27267 -28.98634 107.43291
-153.14267 -25.635529 93.29496
-137.46378 -23.185514 83.317436
-124.26267 -21.118902 74.863167
-112.86358 -19.328705 67.482758
-103.18921 -17.81015 61.230061
-94.48407 -16.427731 55.378056
-87.178688 -15.285539 50.720051
-80.626495 -14.253178 46.430428
-74.650887 -13.302034 42.382545
-69.506073 -12.500003 39.135319
-64.748528 -11.747516 35.979908
-60.431301 -11.064602 33.115566
-56.454872 -10.434659 30.464115
-843.71948 -133.61371 531.26013
-631.02985 -100.96725 404.81165
-461.82812 -74.473854 296.86606
-353.62418 -57.404888 226.0535
-276.99347 -45.188526 174.10008
-230.95731 -37.922085 143.91086
-199.12204 -32.929359 123.48779
-174.41214 -29.052259 107.61017
-152.93614 -25.63328 93.116501
-137.29564 -23.187016 83.176208
-124.23051 -21.143839 74.876884
-112.62554 -19.310452 67.243736
-103.02211 -17.803562 61.072006
-94.420036 -16.440311 55.353889
-87.08567 -15.290339 50.652718
-80.471947 -14.242823 46.265152
-74.554352 -13.302886 42.301468
-69.368034 -12.489772 38.978092
-64.663452 -11.748284 35.908432
-60.351212 -11.065339 33.048256
-56.351566 -10.428243 30.344021
-842.40607 -133.57642 530.19666
-464.65192 -75.046669 299.04843
-352.19659 -57.241058 224.86963
-276.17441 -45.109974 173.39932
-230.57201 -37.908119 143.5808
-198.66579 -32.895081 123.08048
-174.10089 -29.038063 107.33387
-152.65237 -25.618822 92.85939
-137.21986 -23.208178 83.141922
-124.02667 -21.137232 74.692398
-112.49567 -19.315491 67.142754
-102.90331 -17.808489 60.981426
-94.164528 -16.414419 55.070583
-86.878784 -15.272238 50.425117
-80.395821 -14.251179 46.224915
-74.467903 -13.307401 42.241932
-69.2714 -12.490511 38.897106
-64.572548 -11.748978 35.832245
-60.280064 -11.069585 33.004372
-56.312191 -10.439485 30.361101
-841.24329 -133.55377 529.2478
-468.15543 -75.729149 301.76556
-351.24841 -57.154026 224.08232
-275.63153 -45.075539 172.93842
-230.26994 -37.905853 143.32642
-198.33488 -32.880615 122.79224
-173.49426 -28.967308 106.75764
-152.63341 -25.651863 92.882607
-137.13164 -23.22509 83.091537
-123.85081 -21.134275 74.538391
-112.33389 -19.312492 66.999588
-102.67752 -17.789968 60.748158
-94.080139 -16.422857 55.019924
-86.81926 -15.284341 50.408001
-80.256668 -14.244312 46.084965
-74.320641 -13.296848 42.080158
-69.116425 -12.47638 38.712151
-64.53125 -11.760442 35.842205
-60.169659 -11.062916 32.88052
-56.249073 -10.443521 30.325033
-840.03192 -133.51352 528.27313
-471.14078 -76.320847 304.07855
-350.15567 -57.037796 223.1769
-275.29379 -45.073181 172.65578
-230.00499 -37.907196 143.10538
-197.97083 -32.857586 122.47153
-172.94221 -28.904112 106.23524
-152.45427 -25.652784 92.733131
-136.94878 -23.22197 82.933083
-123.72318 -21.13896 74.438927
-112.19893 -19.313181 66.886993
-102.5722 -17.794477 60.669125
-93.928963 -16.415775 54.873821
-86.694939 -15.281101 50.293339
-80.191406 -14.252371 46.054153
-74.244148 -13.301051 42.029316
-69.092117 -12.491539 38.74736
-64.434044 -11.757226 35.746239
-60.149826 -11.077654 32.927204
-56.134945 -10.433265 30.179585
-839.00024 -133.5218 527.41071
-479.84625 -77.885529 310.8717
-349.51328 -57.006985 222.64351
-274.72647 -45.037968 172.17586
-229.52197 -37.875992 142.68831
-197.55501 -32.830482 122.105
-172.88831 -28.937183 106.2215
-152.35678 -25.673454 92.676651
-136.80608 -23.230597 82.826118
-123.55585 -21.139627 74.299599
-112.04607 -19.313791 66.759712
-102.39362 -17.787298 60.50246
-93.853615 -16.427795 54.841141
-86.485832 -15.262569 50.064331
-79.993561 -14.233983 45.829685
-74.02446 -13.275421 41.755936
-68.99321 -12.491927 38.665012
-64.340881 -11.75758 35.668697
-60.019089 -11.067236 32.770866
-56.066044 -10.437132 30.138988
-837.42041 -133.42165 526.17816
-482.94547 -78.500587 313.2742
-348.8465 -56.96323 222.09081
-274.28964 -45.018471 171.80861
-229.32129 -37.888802 142.5274
-197.29948 -32.827034 121.88977
-172.66028 -28.933594 106.02835
-152.15489 -25.670137 92.503624
-136.6619 -23.23501 82.712502
-123.506 -21.159685 74.293175
-111.87015 -19.306351 66.597588
-102.3238 -17.799236 60.471645
-93.791809 -16.439621 54.819725
-86.465553 -15.281876 50.102554
-79.94342 -14.245553 45.824154
-73.995506 -13.290551 41.783653
-68.873444 -12.484818 38.53754
-64.227547 -11.750538 35.544708
-59.926216 -11.063852 32.677868
-56.019379 -10.444426 30.133795
-836.31293 -133.42743 525.25708
-482.71619 -78.575127 313.06461
-348.2673 -56.947575 221.61122
-273.69797 -44.982475 171.30968
-228.63589 -37.824627 141.92789
-196.90903 -32.80724 121.55133
-172.43739 -28.938097 105.84736
-152.08472 -25.698328 92.480652
-136.42363 -23.227396 82.502785
-123.20653 -21.13637 74.002647
-111.76447 -19.318298 66.534081
-102.15397 -17.795591 60.321705
-93.506714 -16.409128 54.503193
-86.23056 -15.259271 49.841507
-79.805687 -14.241977 45.697823
-73.850212 -13.283289 41.63726
-68.782982 -12.488647 38.476578
-64.217735 -11.772509 35.626003
-59.803764 -11.056822 32.544594
-55.889793 -10.433923 29.975937
-835.30194 -133.41959 524.42688
-347.38248 -56.86628 220.87988
-273.39807 -44.986736 171.06236
-229.09171 -37.954247 142.36882
-196.58403 -32.791222 121.27048
-172.09798 -28.914011 105.54275
-151.94212 -25.706379 92.372696
-136.29727 -23.235352 82.410561
-123.0543 -21.136419 73.876717
-111.70282 -19.333954 66.515335
-101.95071 -17.780157 60.117439
-93.406715 -16.413012 54.430576
-86.278397 -15.293504 49.980625
-79.669327 -14.23448 45.560902
-73.819542 -13.298193 41.663895
-68.724289 -12.496036 38.455879
-64.102943 -11.765256 35.501347
-59.795574 -11.074801 32.617332
-55.841942 -10.441043 29.97002
-346.44424 -56.780148 220.10576
-272.70154 -44.925346 170.47247
-228.45811 -37.893272 141.81519
-196.30969 -32.787064 121.04076
-172.02698 -28.941919 105.51236
-151.86943 -25.73 92.343384
-136.20029 -23.251045 82.354744
-122.89147 -21.136301 73.742287
-111.5152 -19.32604 66.344254
-101.8699 -17.791662 60.077969
-93.280327 -16.412926 54.326214
-86.055588 -15.270606 49.730083
-79.559586 -14.234391 45.470314
-73.684639 -13.290682 41.526466
-68.59684 -12.488605 38.322754
-63.952564 -11.750633 35.317238
-59.610405 -11.0496 32.352982
-55.788647 -10.44806 29.959763
-345.95834 -56.767132 219.7052
-272.28101 -44.908588 170.12155
-227.38712 -37.75111 140.86026
-195.93732 -32.762466 120.71552
-171.70752 -28.921494 105.22878
-151.74518 -25.741671 92.256248
-136.00998 -23.246771 82.191841
-122.73695 -21.135992 73.615005
-111.33527 -19.317953 66.179779
-101.72123 -17.787535 59.946236
-93.142303 -16.408854 54.202339
-85.961395 -15.274195 49.663792
-79.472458 -14.237964 45.410748
-73.603729 -13.294205 41.472767
-68.505569 -12.488426 38.247566
-63.851906 -11.746841 35.219276
-59.54393 -11.053034 32.314167
-55.603863 -10.419578 29.672417
-344.80133 -56.647461 218.75175
-271.74634 -44.878952 169.67441
-227.23326 -37.778511 140.74846
-195.53233 -32.73735 120.36386
-171.55394 -28.936745 105.11901
-151.51144 -25.737093 92.058769
-135.85838 -23.254108 82.07946
-122.54208 -21.131542 73.447731
-111.15611 -19.313578 66.0243
-101.49927 -17.771627 59.7272
-93.042641 -16.416122 54.140579
-85.800102 -15.266214 49.508709
-79.320938 -14.230081 45.261864
-73.44516 -13.282717 41.303253
-68.386658 -12.484435 38.135681
-63.799221 -11.757456 35.221085
-59.480869 -11.059949 32.294254
-55.504005 -10.415765 29.573418
-343.83527 -56.556011 217.95645
-271.34708 -44.869434 169.34464
-226.93506 -37.777206 140.50386
-195.27528 -32.736393 120.15279
-171.26154 -28.923807 104.8666
-151.32944 -25.740215 91.914726
-135.573 -23.233547 81.814476
-122.39552 -21.134787 73.334534
-110.92698 -19.29734 65.803505
-101.43382 -17.78651 59.710159
-92.913239 -16.415577 54.034409
-85.662491 -15.261924 49.384628
-79.175232 -14.222078 45.117962
-73.37281 -13.289725 41.270096
-68.272972 -12.480367 38.028236
-63.662102 -11.746165 35.06337
-59.35128 -11.048826 32.139912
-55.475941 -10.429597 29.618116
-621.82324 -100.98847 397.18085
-343.14926 -56.512775 217.39337
-271.19904 -44.904099 169.23375
-226.54507 -37.75948 140.17575
-195.08162 -32.747112 120.00385
-170.752 -28.870481 104.39459
-151.0835 -25.731207 91.702896
-135.38873 -23.232603 81.663559
-122.24754 -21.13784 73.220665
-110.83146 -19.308245 65.749954
-101.32993 -17.793522 59.643547
-92.7649 -16.411057 53.902885
-85.506554 -15.253685 49.234577
-79.062416 -14.221499 45.025562
-73.235077 -13.281731 41.131039
-68.158424 -12.476168 37.920479
-63.539242 -11.738395 34.932594
-59.348427 -11.069898 32.233715
-55.379734 -10.425622 29.522379
-829.10516 -133.42126 519.3194
-342.5065 -56.481304 216.86653
-270.38074 -44.824543 168.54205
-226.00037 -37.717064 139.70831
-194.84883 -32.753456 119.81995
-170.78772 -28.921131 104.47887
-150.90761 -25.737808 91.569572
-135.31433 -23.255116 81.640106
-122.02912 -21.128851 73.027664
-110.6105 -19.295509 65.544594
-101.17942 -17.792578 59.520523
-92.590164 -16.402519 53.739479
-85.377419 -15.252866 49.12904
-73.026283 -13.258697 40.881233
-68.02198 -12.468133 37.780598
-63.469547 -11.745056 34.905834
-59.141743 -11.040585 31.936659
-55.318428 -10.432148 29.506226
-854.66248 -137.78728 537.17352
-341.55661 -56.392292 216.08684
-270.01993 -44.821949 168.24765
-225.62962 -37.702744 139.39903
-194.56215 -32.747368 119.58313
-170.59787 -28.927433 104.3325
-150.63731 -25.724272 91.333298
-135.06609 -23.241856 81.418831
-121.87878 -21.131525 72.912193
-110.45526 -19.294376 65.417946
-100.92477 -17.768299 59.257217
-92.440193 -16.397709 53.606815
-85.289268 -15.259551 49.079613
-78.844193 -14.223649 44.859737
-67.983154 -12.482107 37.805569
-63.360245 -11.740725 34.801537
-59.095154 -11.050693 31.946642
-55.127094 -10.40319 29.21417
-340.55911 -56.294762 215.26852
-269.26495 -44.749775 167.61139
-225.16551 -37.67173 139.00534
-194.23109 -32.733093 119.30357
-170.34128 -28.921375 104.11942
-150.42798 -25.722424 91.162987
-134.91814 -23.248173 81.310974
-121.62861 -21.114365 72.679298
-110.29869 -19.293043 65.290489
-100.8548 -17.782553 59.237366
-92.28933 -16.392761 53.473843
-85.113693 -15.247121 48.902866
-78.728951 -14.222692 44.765888
-72.860039 -13.268158 40.785454
-67.851242 -12.473902 37.669903
-63.220867 -11.72902 34.642788
-58.963337 -11.039176 31.791264
-55.056252 -10.406039 29.173489
-629.43329 -101.04338 378.59131
-618.09564 -100.88503 394.17657
-340.31415 -56.323303 215.0719
-268.66724 -44.701698 167.11136
-224.83186 -37.661011 138.7294
-193.89191 -32.714615 119.01443
-170.14131 -28.923397 103.96107
-150.31461 -25.736616 91.092163
-134.71922 -23.242531 81.143005
-121.52533 -21.12462 72.61747
-110.16963 -19.295555 65.193947
-100.69971 -17.777409 59.102062
-92.199081 -16.399233 53.421051
-85.065697 -15.261221 48.909
-78.603027 -14.21789 44.65115
-72.774048 -13.270917 40.728909
-67.786179 -12.480367 37.645313
-63.115982 -11.724523 34.542381
-58.864464 -11.034779 31.694818
-54.93615 -10.394654 29.024775
-760.82245 -124.96942 500.01974
-339.04562 -56.18737 214.03224
-268.11957 -44.673183 166.65895
-224.35013 -37.632977 138.32451
-193.65662 -32.723518 118.83379
-169.89587 -28.924501 103.76649
-150.01518 -25.722128 90.833229
-134.52591 -23.244255 80.992546
-121.44915 -21.14617 72.599846
-109.99229 -19.293703 65.050095
-100.51789 -17.771839 58.94529
-91.994881 -16.386162 53.224411
-84.804741 -15.233155 48.618134
-78.406044 -14.201495 44.442219
-72.604347 -13.258492 40.551369
-67.564201 -12.453403 37.36573
-63.037666 -11.730666 34.509056
-58.79121 -11.040906 31.667425
-54.920673 -10.41491 29.114563
-338.11584 -56.096741 213.27158
-267.42758 -44.608192 166.07797
-224.12474 -37.64185 138.14926
-193.31415 -32.704491 118.54298
-169.71324 -28.929943 103.62737
-149.87756 -25.731848 90.737946
-134.42557 -23.258015 80.93705
-121.20583 -21.128557 72.373283
-109.82294 -19.288078 64.904579
-100.39781 -17.774115 58.85738
-91.84938 -16.380856 53.096188
-84.634605 -15.220407 48.446144
-78.295387 -14.200225 44.352627
-72.437195 -13.242412 40.362942
-67.467209 -12.452298 37.287189
-62.916904 -11.722347 34.381042
-58.677147 -11.032743 31.54299
-54.746414 -10.389188 28.853933
