# .PCD v0.7 - Point Cloud Data file format
VERSION 0.7
FIELDS x y z
SIZE 4 4 4
TYPE F F F
COUNT 1 1 1
WIDTH 1560
HEIGHT 1
VIEWPOINT 0 0 0 1 0 0 0
POINTS 1560
DATA ascii
303.38211 64.915222 -164.07205
305.76855 64.861488 -156.64145
308.09125 64.793877 -149.1575
291.18582 61.111385 -135.04558
278.5065 58.278988 -123.3039
284.75137 58.993866 -117.91325
302.36761 61.78788 -115.47837
287.48495 58.614723 -104.18407
248.51653 51.136047 -88.24427
207.15492 43.350197 -73.824379
187.83777 39.606529 -65.325096
167.02597 35.655453 -57.519199
150.61607 32.537704 -51.325558
137.12262 29.973911 -46.230305
126.33496 27.913467 -41.980129
116.76414 26.093296 -38.33836
108.85649 24.581976 -35.207008
101.7382 23.224419 -32.435928
95.579376 22.04777 -30.004292
89.865891 20.961779 -27.839987
85.025406 20.033476 -25.870975
80.435501 19.160072 -24.116255
75.996941 18.323444 -22.550531
72.314301 17.618486 -21.073671
69.000275 16.982441 -19.717607
65.614021 16.343777 -18.516747
62.675369 15.7827 -17.362282
630.45135 131.47287 -358.44241
636.45117 131.53192 -342.94943
642.12067 131.52327 -327.25128
303.3223 64.947952 -163.99551
305.80511 64.912666 -156.6037
308.22824 64.863914 -149.15491
301.66714 63.127495 -138.65323
282.29272 59.025532 -124.47804
284.87369 59.056015 -117.89684
296.69495 60.786709 -113.87111
287.45642 58.648571 -104.12169
248.64911 51.193558 -88.225266
207.42598 43.426636 -73.837433
187.85501 39.634659 -65.290016
167.02127 35.676777 -57.483982
150.66689 32.56646 -51.300507
137.22867 30.010303 -46.212341
126.25964 27.916965 -41.946571
116.82178 26.118277 -38.31617
108.7843 24.583761 -35.179981
101.74624 23.238789 -32.412983
95.457123 22.039564 -29.983461
89.849892 20.970495 -27.819563
84.721611 19.994396 -25.867628
80.473816 19.176332 -24.09404
75.983635 18.330738 -22.533489
72.301773 17.625402 -21.057564
68.936157 16.980749 -19.709946
65.602585 16.349968 -18.502197
62.509636 15.764544 -17.378744
630.63715 131.60982 -358.43619
636.75854 131.69226 -342.99261
642.21899 131.64207 -327.18622
303.49579 65.028618 -164.01617
305.98187 64.993515 -156.61905
308.5043 64.963226 -149.20111
292.77402 61.495884 -135.49231
287.79288 60.096142 -126.20176
287.57623 59.599213 -118.64555
294.58517 60.441872 -113.2353
290.27313 59.203957 -104.76289
249.05843 51.30328 -88.265007
207.71779 43.50861 -73.851532
187.79089 39.64986 -65.237862
166.96104 35.689674 -57.437775
150.61043 32.577671 -51.259235
137.22748 30.029205 -46.180916
126.28668 27.9391 -41.919346
116.69342 26.112408 -38.280945
108.86765 24.612768 -35.156979
101.75224 23.253628 -32.38826
95.490906 22.05809 -29.959574
89.910896 20.99264 -27.795086
84.888634 20.033081 -25.836929
80.484268 19.188696 -24.07254
75.942696 18.334152 -22.517872
72.287659 17.632605 -21.040167
68.974976 16.995848 -19.685793
65.589958 16.356451 -18.48658
62.600842 15.786725 -17.343796
631.02545 131.78722 -358.53479
637.01251 131.84232 -343.01056
642.54785 131.80602 -327.22717
303.64337 65.104324 -164.02565
306.03455 65.050629 -156.58475
308.65665 65.039078 -149.20087
619.17645 123.13685 -249.28528
291.74136 60.877983 -127.42178
285.60446 59.275639 -118.00143
294.19174 60.412395 -113.06842
290.21082 59.234467 -104.6877
249.36327 51.394184 -88.280937
208.05954 43.599628 -73.875374
187.77676 39.67395 -65.194351
166.87361 35.697735 -57.387188
150.68303 32.611485 -51.23452
137.35526 30.07052 -46.16267
126.23398 27.947477 -41.885349
116.74766 26.137724 -38.256184
108.73995 24.605978 -35.125828
101.75751 23.268328 -32.36327
95.549957 22.080828 -29.935122
89.839966 20.992966 -27.774643
84.871361 20.041553 -25.816063
80.41539 19.188145 -24.056931
76.031921 18.358517 -22.488634
72.220879 17.631372 -21.029171
68.93512 16.998484 -19.672976
65.550903 16.35877 -18.475231
62.61425 15.796825 -17.323778
631.36182 131.95447 -358.60742
637.21265 131.9819 -343.00336
642.8952 131.97369 -327.27701
303.71518 65.165451 -164.00298
306.13138 65.116287 -156.56821
308.87762 65.128098 -149.22636
308.01672 64.462784 -140.69466
282.82788 59.251976 -124.48608
284.4353 59.100578 -117.59676
297.28632 61.025375 -113.85263
289.73837 59.190018 -104.51038
249.61537 51.475616 -88.284706
208.14172 43.644081 -73.84684
187.6317 39.67469 -65.127464
166.78487 35.705536 -57.336155
150.65012 32.626804 -51.195808
137.37671 30.093359 -46.132751
126.23253 27.964676 -41.855186
116.66985 26.140444 -38.223339
108.74268 24.621286 -35.099316
101.73557 23.278437 -32.337601
95.529495 22.090286 -29.91114
89.741905 20.988754 -27.754673
84.905762 20.058483 -25.791887
80.424614 19.200272 -24.034863
76.015877 18.365911 -22.469856
72.257896 17.646711 -21.004839
68.920586 17.005102 -19.656069
65.589111 16.373209 -18.450365
62.575459 15.798789 -17.313629
631.55151 132.09276 -358.60593
637.54883 132.1485 -343.06247
643.237 132.14049 -327.32465
303.97635 65.263351 -164.06149
306.34875 65.205154 -156.60013
308.8772 65.17498 -149.16888
305.84161 64.098015 -139.87817
285.35129 59.767151 -125.2454
283.51431 58.971333 -117.26611
307.12283 62.882248 -116.47222
291.14636 59.489311 -104.79937
249.73625 51.533325 -88.258575
208.53014 43.743633 -73.878845
187.53668 39.684299 -65.068977
166.61707 35.699314 -57.272865
150.64079 32.646236 -51.159534
137.44952 30.125143 -46.108063
126.3347 27.999765 -41.833328
116.74828 26.169901 -38.199554
108.77074 24.640884 -35.073231
101.71273 23.288374 -32.311611
95.534477 22.103979 -29.886518
89.695671 20.993099 -27.73284
84.939438 20.075304 -25.767569
80.406845 19.207987 -24.014662
76.025345 18.377417 -22.448267
72.189926 17.645245 -20.993443
68.775757 16.991041 -19.658285
65.62674 16.387548 -18.42528
62.613621 15.8127 -17.288063
631.54974 132.19304 -358.50696
637.54871 132.24889 -342.95944
643.28656 132.25037 -327.23956
304.06708 65.328285 -164.0472
306.5137 65.28405 -156.61104
309.04413 65.253838 -149.1741
619.87085 123.54455 -249.17761
297.48624 62.08606 -129.10439
282.31451 58.789978 -116.85278
304.84967 62.507584 -115.7906
291.12592 59.527603 -104.73345
250.08505 51.632442 -88.283134
208.68546 43.801342 -73.864197
187.54317 39.712021 -65.028244
166.68114 35.734112 -57.24456
150.63144 32.665665 -51.123383
137.33945 30.125059 -46.06395
126.25273 28.00304 -41.796001
116.74716 26.18573 -38.170723
108.69285 24.642471 -35.043255
101.71536 23.302591 -32.28569
95.459778 22.10434 -29.862488
89.727531 21.01037 -27.708073
84.841217 20.070433 -25.75042
80.467133 19.228416 -23.988077
76.060234 18.393009 -22.423695
72.173615 17.652021 -20.97529
68.890144 17.018084 -19.621763
65.586151 16.38958 -18.413393
62.41901 15.790346 -17.307989
631.85767 132.36118 -358.56177
637.83765 132.41243 -342.9913
643.79602 132.45628 -327.35831
304.15018 65.394592 -164.02669
306.59692 65.350075 -156.58604
309.08051 65.310623 -149.12711
297.06076 62.530518 -136.70213
300.21838 62.645958 -129.92357
290.79391 60.412819 -119.31075
297.59445 61.214878 -113.75056
290.26138 59.41375 -104.45493
250.22412 51.695656 -88.257309
208.73386 43.841564 -73.825165
187.57104 39.74511 -64.988243
166.6637 35.755852 -57.201336
150.59167 32.680969 -51.080669
137.35622 30.14819 -46.030918
126.2462 28.020361 -41.762848
116.74334 26.202026 -38.139713
108.74361 24.666788 -35.015793
101.76805 23.326054 -32.258514
95.35672 22.100672 -29.836969
89.678604 21.01494 -27.68437
84.924713 20.096075 -25.721239
80.394547 19.227795 -23.970379
75.962852 18.387791 -22.411036
72.129646 17.6549 -20.959009
68.795135 17.012398 -19.614941
65.4664 16.379608 -18.41361
62.506874 15.812452 -17.271173
632.53943 132.59818 -358.81525
637.94293 132.53392 -342.94083
643.99896 132.59645 -327.3443
304.32974 65.476944 -164.0507
306.65912 65.409317 -156.55595
309.24155 65.388489 -149.13011
619.95856 123.75134 -248.96759
292.76984 61.291229 -127.46478
287.23105 59.791862 -118.19496
298.7287 61.467903 -113.99758
291.2019 59.628052 -104.6263
250.51663 51.784706 -88.268356
208.73116 43.870838 -73.778404
187.62656 39.781597 -64.955589
166.54373 35.758007 -57.144581
150.63211 32.709129 -51.050282
137.37273 30.170137 -45.999218
126.26658 28.0413 -41.733219
116.7401 26.21747 -38.110126
108.71643 24.676958 -34.986965
101.76897 23.33997 -32.231968
95.333038 22.10951 -29.811876
89.577682 21.010139 -27.663465
84.851402 20.095251 -25.702042
80.322365 19.226589 -23.953659
75.60463 18.339739 -22.426334
72.085907 17.657236 -20.943703
68.830406 17.026861 -19.589499
65.476509 16.389582 -18.392559
62.440334 15.81 -17.265423
632.36755 132.65906 -358.63727
638.40588 132.72041 -343.06989
644.18329 132.72725 -327.32852
304.29642 65.51516 -163.98694
306.81982 65.484848 -156.56865
309.50323 65.482887 -149.17407
285.84393 60.490803 -132.69225
293.53989 61.47715 -127.65865
288.96182 60.154522 -118.65378
298.04654 61.382767 -113.75416
292.75446 59.9524 -104.95177
250.73463 51.858166 -88.265579
208.60199 43.87553 -73.708885
187.55402 39.793598 -64.902542
166.63142 35.79562 -57.121113
150.67192 32.735947 -51.021225
137.28726 30.173153 -45.958836
126.00033 28.011559 -41.682011
116.6591 26.218596 -38.077419
108.71604 24.690805 -34.960327
101.77045 23.353159 -32.206669
94.65387 22.007713 -29.795097
89.634697 21.030853 -27.638451
84.883415 20.11109 -25.67799
80.329407 19.237665 -23.931633
75.821655 18.384176 -22.383497
72.251282 17.692575 -20.903074
68.840187 17.036745 -19.568813
65.616379 16.419497 -18.349737
62.631969 15.84737 -17.209641
632.86432 132.86555 -358.79169
638.39398 132.825 -342.95819
644.17438 132.83205 -327.2128
304.41852 65.589264 -163.98363
306.96762 65.56353 -156.56989
309.629 65.556946 -149.16049
285.90536 60.548191 -132.65576
305.39432 63.754314 -131.41251
294.16513 61.170727 -120.13393
292.75839 60.450058 -112.25316
292.74503 59.995434 -104.88365
250.89095 51.924683 -88.242294
208.66974 43.919254 -73.672783
187.57695 39.825817 -64.860886
166.45312 35.788746 -57.052479
150.44762 32.718689 -50.954414
137.22124 30.181778 -45.915951
126.12107 28.050875 -41.658157
116.73067 26.247803 -38.049767
108.68526 24.701202 -34.929089
101.66308 23.349543 -32.176624
94.102509 21.92868 -29.774065
89.609703 21.039331 -27.613047
84.833549 20.114744 -25.655485
80.385567 19.258007 -23.902737
75.879158 18.403957 -22.35417
72.101166 17.678356 -20.899426
68.769371 17.034828 -19.557503
65.494942 16.409185 -18.349541
62.486111 15.832961 -17.217918
633.36578 133.05536 -358.96588
639.16156 133.06635 -343.24161
644.42896 132.97095 -327.23621
304.45679 65.638718 -163.9538
307.05716 65.62265 -156.55734
310.08588 65.68615 -149.28064
303.22632 63.875309 -138.62341
299.89267 62.758526 -129.58986
291.8342 60.773769 -119.39083
291.29608 60.216934 -111.80262
295.23611 60.490353 -105.44294
251.16005 52.005451 -88.253479
208.89983 43.987087 -73.676811
187.60811 39.85482 -64.828133
166.51616 35.820599 -57.027294
150.59145 32.762592 -50.940247
137.31755 30.215412 -45.89576
126.03793 28.051779 -41.623146
116.67595 26.252476 -38.019863
108.60638 24.700766 -34.900948
101.61223 23.353033 -32.151825
93.686302 21.869944 -29.75592
89.561905 21.041891 -27.592548
84.918007 20.138567 -25.62932
80.366547 19.264193 -23.883736
75.861092 18.40974 -22.336237
72.084099 17.683834 -20.882473
68.805161 17.048306 -19.533617
65.505569 16.418221 -18.329834
62.523113 15.8457 -17.193157
633.61755 133.21338 -358.99649
639.39545 133.21999 -343.25003
644.76324 133.14348 -327.27765
304.59665 65.716423 -163.95842
306.54379 65.573692 -156.2941
308.3959 65.412422 -148.58926
304.33749 64.134979 -138.94778
303.60211 63.505039 -130.71964
289.68723 60.418159 -118.69254
290.22119 60.062744 -111.44678
295.34772 60.556019 -105.40352
251.54274 52.113354 -88.279869
209.19444 44.071903 -73.684807
187.679 39.895638 -64.793991
166.51712 35.845551 -56.985332
150.54533 32.776711 -50.895309
137.30174 30.232798 -45.857662
125.79067 28.02722 -41.56913
116.69302 26.27231 -37.988503
108.70467 24.733175 -34.873676
101.6079 23.3668 -32.122387
93.396103 21.834494 -29.731661
89.587753 21.058796 -27.564711
84.86676 20.141964 -25.606327
80.290504 19.262882 -23.864883
75.891045 18.425047 -22.309132
72.063103 17.6903 -20.861959
68.811081 17.058575 -19.510172
65.434891 16.415861 -18.320347
62.453537 15.843161 -17.185884
633.98999 133.38985 -359.09525
640.01013 133.4435 -343.44897
644.91284 133.27399 -327.24185
300.51776 64.968307 -162.16507
302.28134 64.796585 -154.53542
304.53345 64.718781 -147.09151
307.24979 64.734879 -139.89998
305.82004 63.968716 -131.37218
289.97372 60.514576 -118.71816
293.38541 60.69215 -112.24284
296.6033 60.8297 -105.64901
251.79756 52.195927 -88.280373
209.95158 44.238773 -73.786491
187.82802 39.948948 -64.775719
166.41537 35.850834 -56.929848
150.42358 32.776218 -50.842934
137.1837 30.231152 -45.811005
126.06686 28.092522 -41.558662
116.65871 26.282341 -37.955666
108.75143 24.755911 -34.84586
101.57834 23.375477 -32.094044
93.080658 21.793962 -29.709072
89.56176 21.066353 -27.539883
84.842262 20.149092 -25.582922
80.241341 19.265327 -23.844913
75.817169 18.422903 -22.293789
72.172737 17.717237 -20.825741
68.791595 17.064264 -19.491529
65.416389 16.421234 -18.302681
62.384583 15.84022 -17.179331
633.75366 133.44447 -358.88315
639.79706 133.50282 -343.24875
645.43567 133.47809 -327.37625
296.48709 64.228386 -160.39383
298.52664 64.116508 -152.98119
300.72037 64.03347 -145.61356
286.81348 60.89156 -132.75499
301.76996 63.249962 -130.01131
289.83139 60.530823 -118.61681
294.7048 60.97998 -112.53816
297.01822 60.948944 -105.6868
251.89888 52.25053 -88.246674
210.19453 44.312706 -73.786209
187.7706 39.965202 -64.721436
166.44116 35.878811 -56.893162
150.53276 32.816505 -50.81921
137.16756 30.247332 -45.774242
126.10696 28.116838 -41.528938
116.64957 26.296694 -37.923992
108.74488 24.769533 -34.815887
101.57406 23.38842 -32.065674
92.921677 21.779675 -29.684443
89.587532 21.082541 -27.513058
84.791 20.151779 -25.560822
80.217667 19.271923 -23.822666
75.794968 18.429125 -22.272877
72.125679 17.718945 -20.809277
68.693718 17.057421 -19.484488
65.371597 16.422438 -18.289375
62.49535 15.865421 -17.136787
632.58234 133.3235 -358.18307
292.75626 63.55127 -158.74612
294.66199 63.419441 -151.37839
296.9187 63.354622 -144.13486
299.4223 63.342152 -137.06297
295.67249 62.148491 -127.98811
289.67545 60.549541 -118.50434
293.46393 60.797569 -112.13295
296.02274 60.813461 -105.36982
252.06302 52.320919 -88.219688
210.29962 44.36525 -73.752739
187.67851 39.978325 -64.655487
166.38248 35.894474 -56.838875
150.42732 32.821316 -50.763489
137.11928 30.260084 -45.729748
126.03668 28.123985 -41.486176
116.66121 26.3165 -37.889469
108.81191 24.797478 -34.784649
101.48652 23.388821 -32.032711
92.91584 21.792583 -29.654606
89.530731 21.086315 -27.485584
84.840538 20.172443 -25.529549
80.216522 19.283436 -23.795425
75.769302 18.435921 -22.249205
72.101349 17.725374 -20.78685
68.722649 17.071829 -19.455395
65.504913 16.452791 -18.242147
62.423035 15.862839 -17.127954
624.26599 131.74931 -353.84436
289.2587 62.91053 -157.20813
291.17892 62.787117 -149.93863
293.42798 62.726376 -142.78307
295.6806 62.671509 -135.713
296.77032 62.397717 -128.28482
289.13422 60.488426 -118.28858
297.25287 61.542496 -113.09832
294.76447 60.62167 -104.99977
252.29176 52.396778 -88.216774
210.13142 44.362946 -73.673286
187.74966 40.016113 -64.625473
166.28059 35.898277 -56.785172
150.35596 32.828415 -50.718662
137.1293 30.279711 -45.697033
126.02459 28.13818 -41.453564
116.46918 26.298313 -37.848721
108.70068 24.792288 -34.752396
101.53474 23.409857 -32.005978
93.019119 21.821667 -29.6278
89.451767 21.084282 -27.463411
84.86779 20.187443 -25.503761
80.219025 19.29369 -23.771919
75.773232 18.445786 -22.226292
71.950386 17.709721 -20.784369
68.754578 17.085165 -19.429417
65.408417 16.445284 -18.238529
62.482323 15.879496 -17.096214
617.07086 130.40396 -350.07697
622.92169 130.4527 -334.81323
285.63403 62.246605 -155.61443
287.66507 62.150475 -148.48474
289.95471 62.103161 -141.43588
292.07968 62.029335 -134.40974
293.4646 61.816727 -127.16637
290.25949 60.74239 -118.56071
297.22641 61.581062 -113.02779
295.95813 60.884605 -105.2281
252.33388 52.440685 -88.168793
210.21468 44.408016 -73.640442
187.73766 40.040512 -64.577934
166.37959 35.939323 -56.758514
150.30649 32.840614 -50.674164
137.05771 30.2861 -45.653709
125.98301 28.148243 -41.416409
116.53542 26.325644 -37.820316
108.71738 24.809866 -34.722343
101.47548 23.413414 -31.976149
93.617378 21.934963 -29.592588
89.448952 21.095644 -27.436565
85.023682 20.224419 -25.468538
80.21949 19.304209 -23.746737
75.748993 18.451622 -22.204668
72.161438 17.753023 -20.73382
68.655067 17.077982 -19.421841
65.362053 16.446177 -18.224689
62.514133 15.892308 -17.06846
617.29395 130.5428 -350.11084
623.31262 130.62427 -334.91544
282.35123 61.645954 -154.17058
284.2294 61.525402 -147.06631
286.70816 61.519981 -140.17743
288.60831 61.408279 -133.15588
290.26389 61.252117 -126.08611
292.21341 61.149746 -119.08014
294.63626 61.139648 -112.26911
296.92548 61.103554 -105.40372
252.55681 52.515602 -88.163651
209.68565 44.340103 -73.489815
187.70293 40.05925 -64.529091
166.29997 35.947086 -56.707413
150.43898 32.883831 -50.654209
136.93654 30.282648 -45.607494
125.96903 28.162085 -41.383133
116.52458 26.338717 -37.789261
108.6569 24.813318 -34.691189
101.3651 23.40745 -31.947309
93.561813 21.93733 -29.56703
89.368759 21.093357 -27.41399
84.814201 20.200159 -25.456198
80.142487 19.301363 -23.729261
75.64756 18.444294 -22.192438
72.087387 17.749752 -20.721134
68.659958 17.086967 -19.399422
65.393837 16.458967 -18.198133
62.315239 15.868385 -17.087854
278.96021 61.028339 -152.67628
280.73376 60.89286 -145.61943
283.39911 60.929028 -138.89069
285.12384 60.788883 -131.89223
286.55466 60.595356 -124.83746
288.95248 60.582817 -118.05547
291.07498 60.52161 -111.24188
293.39404 60.496258 -104.46908
252.71663 52.583286 -88.13755
209.9142 44.413322 -73.481964
187.73579 40.093288 -64.486084
166.21266 35.956192 -56.650082
150.28 32.877823 -50.593174
136.88535 30.293695 -45.563446
126.02693 28.190506 -41.351257
116.4037 26.334595 -37.747913
108.565 24.813091 -34.655128
101.40672 23.428934 -31.916126
93.423225 21.927132 -29.539122
89.362747 21.104851 -27.385099
84.836166 20.215565 -25.426641
80.087814 19.303394 -23.706579
75.594543 18.445969 -22.171923
71.983887 17.742769 -20.709038
68.60997 17.088169 -19.382463
65.319298 16.455835 -18.187357
62.34486 15.88127 -17.05872
272.99088 60.384331 -157.84811
275.64072 60.423714 -151.2137
277.33301 60.277733 -144.21176
280.11438 60.341747 -137.61432
282.72208 60.375477 -131.0041
285.02637 60.351105 -124.28777
287.53928 60.362419 -117.57573
290.20645 60.404778 -110.94152
293.00116 60.468548 -104.30355
252.82317 52.641239 -88.099274
210.11481 44.481537 -73.468193
187.7921 40.131573 -64.446724
166.20103 35.978817 -56.603672
150.19737 32.885319 -50.541229
136.91234 30.318489 -45.527344
125.9794 28.200512 -41.31068
116.49039 26.366405 -37.717854
108.5506 24.826149 -34.621403
101.42135 23.44582 -31.88439
93.310097 21.921183 -29.510576
89.695824 21.173141 -27.343365
84.883301 20.235147 -25.395325
80.188919 19.331059 -23.670805
75.697144 18.47303 -22.134533
72.009689 17.756685 -20.680065
68.611099 17.097551 -19.357328
65.192581 16.444378 -18.185514
62.374062 15.894079 -17.029289
272.6441 60.359436 -157.64832
275.07602 60.356472 -150.92772
277.41742 60.337475 -144.1969
280.49191 60.457813 -137.70306
282.78439 60.43045 -130.97119
285.19003 60.425011 -124.28287
287.67905 60.431419 -117.55681
290.32339 60.469147 -110.91013
292.84052 60.481236 -104.19861
253.16182 52.739723 -88.11512
209.93494 44.478737 -73.382515
187.72331 40.14571 -64.388435
166.24304 36.009678 -56.567238
150.11522 32.891651 -50.49118
136.94031 30.342354 -45.493145
125.98561 28.218878 -41.275978
116.44806 26.37492 -37.682213
108.61576 24.852007 -34.59156
101.38474 23.453163 -31.853601
93.381142 21.94562 -29.480942
89.1409 21.091908 -27.335766
84.827034 20.236885 -25.371485
80.108398 19.328175 -23.651161
75.644524 18.474165 -22.114788
71.984444 17.761774 -20.658796
68.63887 17.110682 -19.329168
65.324661 16.473557 -18.139044
62.378094 15.902465 -17.005936
272.76895 60.427956 -157.66257
275.32233 60.448456 -150.98706
277.71494 60.438839 -144.26691
280.62329 60.526485 -137.70029
282.94345 60.503983 -130.97163
285.32544 60.493629 -124.26875
287.61731 60.462517 -117.47852
290.21069 60.490677 -110.81669
292.87973 60.53093 -104.14234
253.2431 52.791019 -88.073982
209.82837 44.489269 -73.310738
187.78036 40.182587 -64.351303
166.17934 36.021595 -56.514732
150.13704 32.916443 -50.454117
136.83699 30.34305 -45.445194
125.86043 28.214251 -41.230824
116.40469 26.383234 -37.646217
108.60162 24.864235 -34.559036
101.26897 23.446978 -31.821867
93.216103 21.930101 -29.454306
88.820793 21.04994 -27.319517
84.769997 20.238474 -25.347382
80.079262 19.333744 -23.627001
75.643173 18.483669 -22.089373
71.958588 17.766756 -20.637306
68.536598 17.102919 -19.320705
65.249794 16.469814 -18.128845
62.33028 15.902662 -16.992714
272.84912 60.485149 -157.65927
275.38153 60.501205 -150.96965
307.7934 66.344261 -156.19595
311.45078 66.526405 -149.09616
306.27765 63.055054 -107.35036
253.58228 52.88763 -88.092499
209.59802 44.475433 -73.217659
187.81474 40.213806 -64.312737
166.19655 36.046646 -56.476711
150.08295 32.926495 -50.409622
136.78763 30.35214 -45.404705
125.76302 28.21344 -41.189747
116.44132 26.404491 -37.616253
108.38013 24.83988 -34.521534
101.28522 23.462505 -31.792805
93.078537 21.918455 -29.428682
88.423828 20.994282 -27.307602
84.688072 20.23525 -25.326303
80.129608 19.351807 -23.597569
75.590866 18.484245 -22.070517
71.959595 17.775534 -20.613457
68.616508 17.123892 -19.285391
65.227463 16.473936 -18.110516
62.309013 15.906574 -16.975273
306.14145 66.598991 -164.00203
308.50851 66.531898 -156.42708
311.63644 66.610374 -149.10797
307.09048 63.25024 -107.47904
253.65898 52.938187 -88.049461
209.74495 44.532162 -73.19503
187.66309 40.212933 -64.239273
166.20869 36.072163 -56.435127
149.97182 32.927608 -50.35524
136.83719 30.379803 -45.371563
125.84402 28.244862 -41.159935
116.39607 26.412462 -37.57959
108.44254 24.865253 -34.490833
101.27224 23.473835 -31.761362
93.068802 21.929173 -29.399334
88.128838 20.95635 -27.290184
84.786263 20.262646 -25.292128
80.073112 19.352837 -23.575232
75.562378 18.489271 -22.047422
71.932579 17.780293 -20.591566
68.565002 17.124252 -19.268612
65.177414 16.474106 -18.095425
62.234634 15.902542 -16.967062
306.37494 66.690659 -164.05424
308.72083 66.618797 -156.46132
311.70596 66.669106 -149.08002
585.30127 118.67205 -235.03136
586.83148 118.0146 -220.25528
307.35089 63.340473 -107.47669
254.27357 53.085686 -88.127625
209.79269 44.569057 -73.155815
187.82225 40.266762 -64.22142
166.12009 36.078205 -56.380909
149.91516 32.937172 -50.309856
136.81184 30.393112 -45.333019
125.79686 28.252825 -41.122162
116.37858 26.424307 -37.546181
108.37621 24.867567 -34.457684
101.3131 23.493559 -31.73196
92.747261 21.886263 -29.376167
87.600327 20.878386 -27.283154
84.807411 20.276569 -25.264116
80.043915 19.357744 -23.55187
75.586876 18.502392 -22.019871
71.880684 17.780458 -20.574211
68.54039 17.128405 -19.248901
65.179832 16.482138 -18.072159
62.289471 15.918433 -16.933676
306.46988 66.760872 -164.04196
308.81766 66.688927 -156.4433
311.87924 66.753662 -149.08383
576.79059 117.13049 -231.98123
579.59106 116.72778 -217.82326
307.56848 63.428074 -107.45518
254.46619 53.159889 -88.105576
209.87962 44.616665 -73.117767
187.74026 40.280041 -64.156464
166.14963 36.108215 -56.338371
149.84979 32.947617 -50.25824
136.67455 30.388832 -45.278233
125.69058 28.252428 -41.075348
116.43274 26.450474 -37.512287
108.30368 24.87051 -34.420242
101.19166 23.487103 -31.697245
92.525017 21.86157 -29.347837
87.380676 20.853615 -27.260887
84.823914 20.291006 -25.232723
80.036499 19.367449 -23.523085
75.65934 18.524515 -21.983768
71.850777 17.785246 -20.550583
68.460358 17.124634 -19.234524
65.152962 16.486439 -18.050936
62.392231 15.94282 -16.887608
306.51343 66.821037 -164.0079
308.96048 66.768112 -156.44351
311.90173 66.80912 -149.03174
570.24384 115.96395 -229.61055
572.84668 115.53326 -215.55209
307.53012 63.468163 -107.37083
254.60541 53.224319 -88.071342
210.29559 44.724514 -73.143326
187.68175 40.297562 -64.095032
166.12685 36.128822 -56.287956
149.80946 32.962517 -50.209629
136.63968 30.402645 -45.233459
125.76511 28.283733 -41.041889
116.2515 26.435648 -37.465328
108.25639 24.877779 -34.383266
101.09535 23.484909 -31.662416
92.510956 21.872175 -29.316088
87.264526 20.846209 -27.234333
84.787476 20.296598 -25.204247
80.002182 19.372688 -23.496298
75.497208 18.50815 -21.972662
71.846176 17.794128 -20.523312
68.50898 17.141565 -19.199873
65.099892 16.486542 -18.034155
62.314831 15.9387 -16.877583
306.63284 66.893417 -164.00935
309.13156 66.850098 -156.4584
312.10004 66.895889 -149.04813
564.12878 114.87343 -227.39737
567.08008 114.51833 -213.60146
307.42126 63.492523 -107.27341
254.87634 53.310963 -88.069344
210.3313 44.761093 -73.097435
187.65227 40.318787 -64.041389
166.0305 36.134792 -56.22929
149.77103 32.976517 -50.16312
136.60706 30.415737 -45.190914
125.68565 28.286995 -40.998638
116.2282 26.447369 -37.428669
108.28888 24.897968 -34.350288
101.10504 23.500061 -31.629969
92.472191 21.877848 -29.286142
87.254242 20.855934 -27.205175
84.830399 20.314787 -25.172216
79.969208 19.377533 -23.470802
75.492081 18.516937 -21.945786
71.739059 17.78578 -20.510813
68.455231 17.141478 -19.182335
65.176338 16.506842 -17.995289
62.238392 15.934254 -16.868542
306.82187 66.979614 -164.04028
309.15546 66.903343 -156.41473
312.22299 66.968124 -149.03654
558.06329 113.79077 -225.20332
561.58551 113.55373 -211.73936
307.33527 63.521118 -107.18124
254.94023 53.359459 -88.021538
210.18768 44.764824 -73.016495
187.72316 40.358238 -64.004234
165.93163 36.140293 -56.169735
149.73132 32.990273 -50.116169
136.67709 30.447014 -45.15826
125.57919 28.285473 -40.952991
116.15192 26.449841 -37.388885
108.26828 24.90897 -34.31538
101.00957 23.497164 -31.596518
92.27623 21.856758 -29.258463
87.269218 20.869919 -27.174789
84.768463 20.315439 -25.146423
80.013451 19.395151 -23.438343
75.434456 18.517103 -21.924473
71.760841 17.798391 -20.481129
68.349228 17.132935 -19.172668
65.12368 16.5065 -17.979307
62.366428 15.962185 -16.817717
306.91269 67.046516 -164.02979
309.2724 66.974907 -156.40805
312.36554 67.044289 -149.03224
552.12054 112.72993 -223.05377
554.68311 112.31853 -209.4317
307.47302 63.591419 -107.14286
255.1543 53.435734 -88.005905
210.14342 44.786755 -72.954605
187.69005 40.378807 -63.949135
165.90884 36.159492 -56.121098
149.7155 33.008293 -50.071774
136.51381 30.436914 -45.102535
125.60149 28.306589 -40.916859
116.10072 26.456663 -37.350178
108.2207 24.915297 -34.27943
101.04352 23.516459 -31.563601
92.02742 21.826616 -29.231495
87.205139 20.870544 -27.147175
84.783981 20.329033 -25.115519
79.927055 19.391109 -23.416861
75.453995 18.529928 -21.894382
71.807991 17.815132 -20.44763
68.449303 17.157639 -19.130552
65.12191 16.514278 -17.953907
62.365879 15.969744 -16.792717
307.00003 67.112816 -164.01784
309.40994 67.050606 -156.40971
312.62775 67.143799 -149.07213
547.40234 111.90372 -221.32693
307.70886 63.680099 -107.12806
255.18904 53.478912 -87.951111
210.12379 44.813194 -72.897186
187.57755 40.38493 -63.880188
165.80733 36.164471 -56.060654
149.72482 33.030823 -50.03038
136.50276 30.453806 -45.06105
125.57063 28.318342 -40.876453
116.12653 26.476925 -37.315254
108.19826 24.925957 -34.244015
100.97249 23.517719 -31.529766
91.726051 21.787451 -29.205366
87.479095 20.928251 -27.105734
84.772705 20.338121 -25.08584
79.918022 19.399874 -23.388464
75.421143 18.534122 -21.869778
71.699173 17.806438 -20.434721
68.342361 17.148903 -19.120575
65.170975 16.530184 -17.919033
62.211182 15.952825 -16.798828
307.23538 67.20565 -164.07176
309.57715 67.129372 -156.42627
312.65268 67.194389 -149.0276
544.24091 111.37173 -220.14247
548.30042 111.2581 -207.187
307.74857 63.729603 -107.06935
255.45586 53.562935 -87.950005
210.0045 44.819576 -72.823181
187.57237 40.408993 -63.832188
165.8121 36.187256 -56.018177
149.55594 33.020184 -49.969223
136.46983 30.465681 -45.019711
125.46447 28.315802 -40.832275
116.0764 26.482981 -37.278149
108.09979 24.922573 -34.208084
101.08547 23.549789 -31.498514
91.634773 21.783312 -29.177286
87.389931 20.923958 -27.080273
84.815056 20.355551 -25.054434
79.858566 19.399647 -23.365826
75.467316 18.550751 -21.83778
71.695107 17.814264 -20.409094
68.365509 17.16066 -19.091438
65.066956 16.521084 -17.913015
62.211208 15.959983 -16.774673
307.35458 67.28138 -164.07091
309.72406 67.209969 -156.42857
312.80249 67.275085 -149.02251
541.73169 110.97456 -219.1707
543.84888 110.49244 -205.65648
307.61652 63.752335 -106.96037
255.78267 53.662479 -87.954147
209.95024 44.841415 -72.755394
187.50368 40.424622 -63.767323
165.83051 36.215267 -55.971634
149.5332 33.03817 -49.920822
136.40196 30.47356 -44.969875
125.50591 28.341288 -40.794441
116.12299 26.507793 -37.241379
108.20264 24.955795 -34.173576
100.95782 23.542082 -31.461874
91.485817 21.770729 -29.146311
87.269363 20.915682 -27.05237
84.878029 20.377731 -25.017719
79.897881 19.417015 -23.330786
75.379272 18.546387 -21.816919
71.635025 17.814005 -20.387466
68.384651 17.172771 -19.059496
65.06189 16.52877 -17.885788
62.284222 15.979626 -16.732246
307.43243 67.346085 -164.05539
309.80505 67.274834 -156.4079
312.98102 67.358643 -149.03133
534.05164 109.57221 -216.4325
537.51508 109.35976 -203.53735
307.7933 63.830154 -106.92993
255.80927 53.704304 -87.896126
210.10167 44.899323 -72.729904
187.64301 40.47662 -63.740128
165.75139 36.224251 -55.913792
149.61577 33.073814 -49.887188
136.31082 30.47617 -44.919998
125.4718 28.35243 -40.75275
116.06773 26.513855 -37.201244
108.1254 24.956911 -34.135529
100.93638 23.551817 -31.427332
91.520813 21.788797 -29.113626
87.280449 20.928967 -27.020441
84.786514 20.373343 -24.992338
79.886871 19.425426 -23.301678
75.422241 18.563042 -21.783009
71.627968 17.82185 -20.36006
68.327629 17.172047 -19.04085
65.057976 16.536152 -17.859631
62.153755 15.966472 -16.732714
307.57874 67.424484 -164.06917
310.00235 67.362694 -156.43344
313.10956 67.432526 -149.02167
528.06 108.49432 -214.27582
531.6748 108.32002 -201.57684
536.08301 108.29223 -189.03719
307.89133 63.893322 -106.8802
256.08771 53.792881 -87.892525
210.43069 44.989964 -72.738457
187.32043 40.444344 -63.634727
165.79747 36.255901 -55.873409
149.46498 33.067574 -49.825027
136.32146 30.496881 -44.879448
125.33314 28.345097 -40.703098
115.98563 26.5152 -37.159458
108.0213 24.953342 -34.096531
100.93986 23.565844 -31.392662
91.554993 21.806713 -29.080513
87.134811 20.915707 -26.994791
84.642433 20.360098 -24.970097
79.797295 19.420729 -23.279007
75.309082 18.553925 -21.766151
71.620308 17.829588 -20.33243
68.244194 17.167011 -19.02607
65.002182 16.535196 -17.842585
62.252899 15.98981 -16.685844
307.73538 67.50798 -164.08452
310.09021 67.432014 -156.41264
313.17548 67.497169 -148.9855
523.4223 107.68156 -212.57924
527.22266 107.54985 -200.05168
532.39301 107.67377 -187.84088
307.92657 63.947418 -106.81039
256.25381 53.862881 -87.860367
210.31741 45.001015 -72.657921
187.24536 40.458775 -63.567638
165.63309 36.250797 -55.799751
149.489 33.093945 -49.781181
136.24969 30.504013 -44.828278
125.29337 28.356216 -40.658115
115.95097 26.525763 -37.117596
108.06902 24.976994 -34.059376
100.8616 23.566561 -31.35527
91.585587 21.824743 -29.045298
87.194016 20.93779 -26.958504
84.261604 20.307661 -24.961212
79.834427 19.437721 -23.243168
75.426193 18.583368 -21.721674
71.532539 17.82473 -20.313694
68.209961 17.170422 -19.001642
64.969658 16.53842 -17.819403
62.043045 15.9644 -16.700531
307.92282 67.59478 -164.11581
310.20895 67.504623 -156.40718
313.34586 67.579414 -148.99123
517.84741 106.68112 -210.56941
521.08728 106.4502 -198.00186
525.12354 106.36759 -185.61162
307.84265 63.976589 -106.71591
256.47522 53.941044 -87.843262
210.20898 45.011166 -72.58139
186.97087 40.435154 -63.469753
165.72804 36.291309 -55.765903
149.4644 33.110352 -49.733673
136.23233 30.519726 -44.784561
125.23013 28.362162 -40.613441
115.89273 26.53125 -37.076439
107.96307 24.973053 -34.019753
100.8633 23.580256 -31.319975
91.54007 21.829039 -29.013126
87.098923 20.933048 -26.930279
83.908813 20.259197 -24.952358
79.743599 19.432779 -23.220217
75.182495 18.552629 -21.718771
71.523712 17.832245 -20.285664
68.228546 17.18189 -18.970192
64.912773 16.537241 -17.802
62.217625 15.999745 -16.637442
307.87994 67.632957 -164.05273
310.40726 67.590096 -156.43617
313.474 67.650635 -148.98466
513.02197 105.81986 -208.82387
516.49664 105.64134 -196.44908
520.57257 105.57322 -184.18169
308.06689 64.060913 -106.69965
256.44946 53.971138 -87.776291
210.69044 45.128345 -72.621162
186.08853 40.298691 -63.273102
165.59508 36.289127 -55.701523
149.36586 33.112221 -49.679501
136.16631 30.525648 -44.738289
125.2732 28.385908 -40.57877
115.86293 26.540792 -37.038708
107.9373 24.982203 -33.984295
100.81525 23.58457 -31.286293
91.678398 21.864077 -28.979076
86.823975 20.89706 -26.911211
83.713623 20.23654 -24.934978
79.758018 19.444763 -23.189373
75.250877 18.572893 -21.682627
71.490395 17.835203 -20.262348
68.196983 17.184711 -18.94808
64.934196 16.548172 -17.771709
62.010536 15.973824 -16.654396
307.96521 67.699646 -164.04115
310.56747 67.671112 -156.44727
313.58957 67.722359 -148.97011
507.74146 104.87352 -206.91859
510.65906 104.59581 -194.49747
514.94183 104.57612 -182.43306
308.25381 64.140968 -106.66968
256.54004 54.025085 -87.730301
210.4772 45.11919 -72.523926
184.33235 40.003548 -62.926987
165.61115 36.315342 -55.655869
149.3387 33.128143 -49.6311
136.17191 30.545446 -44.696079
125.13039 28.377737 -40.527737
115.75101 26.536818 -36.994297
107.90755 24.991486 -33.946178
100.78934 23.593481 -31.250315
91.501442 21.845837 -28.948883
86.727768 20.892048 -26.882671
83.463547 20.205217 -24.919136
79.924881 19.482803 -23.142942
75.187065 18.571836 -21.65922
71.454559 17.838259 -20.237432
68.111496 17.179253 -18.932631
64.927513 16.555042 -17.74457
62.184002 16.009003 -16.590862
308.2485 67.802963 -164.11635
310.63974 67.731926 -156.42657
313.78412 67.806786 -148.98796
502.28384 103.88676 -204.96039
505.06201 103.59045 -192.6302
509.32736 103.57607 -180.69791
308.17084 64.16777 -106.57887
256.78879 54.106342 -87.722076
210.52199 45.155891 -72.479065
182.86165 39.758717 -62.632183
165.57846 36.331329 -55.605331
149.23874 33.129726 -49.576603
136.13004 30.555658 -44.651752
125.09384 28.387358 -40.486542
115.77117 26.55512 -36.958534
107.80231 24.986755 -33.907982
100.81754 23.610949 -31.216326
91.53434 21.862827 -28.916334
86.659431 20.891066 -26.854441
83.189735 20.169189 -24.906563
79.730858 19.459969 -23.130171
75.17675 18.57906 -21.631281
71.471817 17.849487 -20.20669
68.156113 17.194429 -18.897846
64.870995 16.5534 -17.72797
61.976109 15.982883 -16.607595
308.26956 67.860001 -164.07509
310.80704 67.817459 -156.43744
313.93146 67.887833 -148.98166
499.47443 103.42225 -203.8974
503.23917 103.31997 -191.94408
507.66629 103.33892 -180.09789
308.14175 64.209991 -106.49178
256.96671 54.178871 -87.690102
210.4753 45.17926 -72.40963
181.99203 39.626785 -62.432388
165.4828 36.338612 -55.539925
149.17818 33.140835 -49.520752
135.92316 30.538542 -44.585949
125.04832 28.397387 -40.439556
115.65377 26.551058 -36.911007
107.819 25.004971 -33.868362
100.70895 23.606323 -31.177359
91.50885 21.871218 -28.880667
86.818352 20.930058 -26.81222
82.936226 20.137783 -24.888809
79.867943 19.493641 -23.08363
75.186974 18.590792 -21.597099
71.32959 17.835575 -20.19409
68.17028 17.205639 -18.864126
64.835762 16.556103 -17.703856
62.044548 16.00174 -16.563477
308.5256 67.964012 -164.13326
311.04266 67.916634 -156.47519
314.12317 67.977707 -148.99161
493.42358 102.32636 -201.72873
496.20859 102.04436 -189.61565
500.2634 102.00307 -177.83475
308.48489 64.322273 -106.49355
257.09201 54.241665 -87.646515
210.14906 45.150887 -72.286903
181.93539 39.643814 -62.367943
165.41092 36.350216 -55.477684
149.14287 33.156487 -49.467903
135.92143 30.558113 -44.539734
124.97581 28.402615 -40.390343
115.66453 26.569532 -36.869499
107.73114 25.004923 -33.825554
100.72899 23.62394 -31.13839
91.586151 21.89724 -28.842474
86.820801 20.942448 -26.776497
82.708054 20.110575 -24.869217
79.641945 19.466587 -23.069569
75.299644 18.619507 -21.550932
71.444229 17.863827 -20.145817
68.055405 17.195822 -18.850857
64.800018 16.558706 -17.67956
62.061287 16.012333 -16.529675
308.5979 68.028572 -164.1169
311.1427 67.986176 -156.46262
314.15225 68.03289 -148.9451
488.95056 101.53133 -200.10643
491.67715 101.24478 -188.08385
495.97147 101.25616 -176.48167
308.53354 64.37661 -106.42867
257.1463 54.289062 -87.590874
209.9278 45.140121 -72.186996
183.3347 39.926723 -62.548641
165.44598 36.379894 -55.433174
149.05875 33.162094 -49.411396
135.92331 30.577217 -44.496067
124.82891 28.3936 -40.337975
115.57454 26.569326 -36.82505
107.61996 24.999924 -33.784195
100.69953 23.632191 -31.101166
91.509995 21.8962 -28.80913
86.695709 20.932434 -26.747982
82.507881 20.087408 -24.849401
79.547279 19.460859 -23.045208
75.155914 18.605127 -21.535374
71.380318 17.862209 -20.123657
68.070412 17.206646 -18.818117
64.842262 16.573418 -17.642199
61.926632 15.998255 -16.528852
308.73904 68.106956 -164.12958
311.1199 68.031464 -156.40158
314.15558 68.083054 -148.88911
484.08832 100.6593 -198.35289
487.09723 100.43449 -186.5385
490.93732 100.36587 -174.91541
308.55423 64.425705 -106.35664
257.24979 54.345684 -87.545525
209.78178 45.143242 -72.101418
183.53407 39.989479 -62.528736
165.32642 36.381413 -55.366501
149.02525 33.176834 -49.360771
135.92267 30.595881 -44.451633
124.88719 28.421038 -40.300014
115.56114 26.582609 -36.784077
107.66305 25.021885 -33.746464
100.61733 23.631289 -31.063503
91.303581 21.872742 -28.778458
86.673477 20.939915 -26.714642
82.332977 20.068466 -24.827826
79.606903 19.480959 -23.006643
75.114845 18.607756 -21.507921
71.367203 17.868931 -20.094112
67.982353 17.200657 -18.801823
64.78183 16.571537 -17.623594
61.893417 16.000381 -16.506649
308.85254 68.179962 -164.13077
311.30896 68.118843 -156.42421
314.37149 68.175117 -148.91122
479.56662 99.852219 -196.71727
482.95779 99.708168 -185.13333
487.23886 99.730301 -173.73711
308.79794 64.516899 -106.33764
257.47617 54.425358 -87.526176
210.64491 45.333519 -72.207008
183.47781 40.005272 -62.466076
165.30618 36.401031 -55.313347
149.01588 33.195934 -49.312588
135.8186 30.595985 -44.397182
124.78965 28.420757 -40.250622
115.46918 26.582018 -36.738953
107.65343 25.03462 -33.707062
100.58623 23.639227 -31.025702
91.019035 21.835779 -28.749201
86.598732 20.938437 -26.68342
82.079948 20.036243 -24.811239
79.588287 19.487947 -22.974863
75.382492 18.661673 -21.444744
71.379143 17.879759 -20.060747
68.02182 17.215448 -18.764503
64.669678 16.561264 -17.614281
61.834366 15.99835 -16.489647
309.01077 68.262016 -164.15108
311.42267 68.191414 -156.4173
314.41678 68.233704 -148.87062
475.28973 99.09166 -195.16663
477.62015 98.748703 -183.35283
481.88632 98.776253 -172.08238
308.88824 64.579254 -106.28159
257.323 54.434078 -87.425171
211.38004 45.500267 -72.287613
183.29292 39.997391 -62.381802
165.23434 36.411224 -55.252766
148.92793 33.200817 -49.254742
135.73875 30.600412 -44.344677
124.66544 28.415701 -40.199013
115.3506 26.576704 -36.692314
107.5137 25.024569 -33.664219
100.4766 23.63352 -30.98749
90.966797 21.838745 -28.714762
86.471619 20.927982 -26.654285
81.955643 20.025761 -24.78586
79.517555 19.486179 -22.947552
75.443008 18.681198 -21.404902
71.339081 17.882013 -20.034363
67.95816 17.213396 -18.743633
64.68483 16.571568 -17.581097
61.876415 16.012508 -16.451084
309.07126 68.318665 -164.13556
311.5813 68.267097 -156.43407
314.77026 68.347237 -148.94981
470.34381 98.190605 -193.40062
473.41919 97.999451 -181.94327
477.35941 97.97084 -170.68036
308.94766 64.630493 -106.22694
257.51273 54.502598 -87.405205
211.74782 45.595432 -72.304901
183.06831 39.97908 -62.29702
165.63104 36.504269 -55.263939
148.87529 33.209625 -49.206455
135.8219 30.631903 -44.312637
124.7291 28.442091 -40.165543
115.31636 26.584429 -36.654274
107.53549 25.04109 -33.629601
100.45061 23.640743 -30.953604
91.126709 21.876846 -28.679438
86.349823 20.917093 -26.62896
81.862267 20.019238 -24.762077
79.528885 19.496973 -22.916395
74.787048 18.580383 -21.451357
71.226288 17.871229 -20.021763
67.949875 17.219395 -18.717249
64.627159 16.569145 -17.564808
61.642414 15.981506 -16.473778
309.24551 68.410141 -164.15738
311.68829 68.344452 -156.41835
314.75992 68.400993 -148.88196
466.34824 97.491066 -191.93806
469.24802 97.271751 -180.52119
473.11023 97.234421 -169.33513
309.2851 64.745003 -106.21972
257.53671 54.548943 -87.333115
212.00674 45.677666 -72.287056
182.8927 39.975903 -62.207512
165.21284 36.453934 -55.147728
148.77475 33.214638 -49.141048
135.52527 30.599545 -44.233994
124.59395 28.437054 -40.107483
115.31671 26.601938 -36.60788
107.43821 25.040112 -33.582428
100.33241 23.635059 -30.910318
90.911476 21.853104 -28.643797
86.292908 20.919893 -26.591986
81.808693 20.0219 -24.727238
79.502869 19.503864 -22.880388
75.021629 18.62993 -21.387022
71.180267 17.873491 -19.991863
67.983025 17.234121 -18.676445
64.636772 16.579447 -17.528376
61.857273 16.024239 -16.394766
309.30023 68.471802 -164.13435
311.29352 68.316109 -156.21132
314.89166 68.476906 -148.87297
462.00122 96.713043 -190.3683
464.5993 96.441742 -178.96242
468.82098 96.480667 -167.99229
309.31592 64.796326 -106.14816
257.67761 54.612846 -87.293709
211.90004 45.688381 -72.206665
182.8812 39.999882 -62.15115
165.21283 36.477257 -55.096291
148.78574 33.237419 -49.094082
135.64758 30.640291 -44.199619
124.51799 28.44054 -40.058453
115.27239 26.609697 -36.563877
107.37318 25.043081 -33.54047
100.34953 23.651327 -30.871349
90.753555 21.837797 -28.610994
86.11232 20.90019 -26.564623
81.86319 20.041636 -24.688492
79.455757 19.506012 -22.849998
75.003082 18.636236 -21.355555
71.138481 17.875404 -19.964897
67.789795 17.210812 -18.675859
64.624748 16.585312 -17.499371
61.821487 16.025877 -16.371674
309.51562 68.565788 -164.17923
311.67984 68.443382 -156.31184
315.09125 68.566322 -148.88884
457.43619 95.891129 -188.72598
460.0976 95.638992 -177.45142
464.09024 95.640701 -166.52402
309.2442 64.828285 -106.05182
257.71524 54.657433 -87.23185
212.22147 45.778778 -72.206902
182.7408 40.000088 -62.073307
165.18639 36.49575 -55.040913
148.6926 33.241302 -49.034458
135.53697 30.639141 -44.143066
124.51804 28.457582 -40.014397
115.253 26.621859 -36.520653
107.35886 25.054941 -33.499424
100.33982 23.662922 -30.832005
90.775612 21.853516 -28.573687
86.085823 20.906834 -26.529982
81.813705 20.043736 -24.656765
79.382393 19.503723 -22.821798
75.009796 18.64674 -21.320717
71.147499 17.885689 -19.930508
67.877533 17.233465 -18.629236
64.586655 16.586931 -17.474943
61.75985 16.023344 -16.353781
309.27985 68.569267 -164.03426
311.80142 68.518013 -156.30814
315.19141 68.636261 -148.86816
455.51117 95.585182 -187.98203
459.04004 95.503952 -177.02226
463.14923 95.529457 -166.14777
309.49377 64.921127 -106.03152
257.77628 54.706448 -87.174736
212.36195 45.835602 -72.172211
182.49774 39.981297 -61.978291
165.25964 36.532516 -54.999054
148.52187 33.231075 -48.965626
135.55447 30.661037 -44.098232
124.36292 28.446894 -39.959316
115.20666 26.629242 -36.475937
107.36942 25.071167 -33.458569
100.27769 23.665373 -30.792406
90.513206 21.820084 -28.542892
85.981323 20.900097 -26.498606
81.969772 20.080734 -24.61035
79.411331 19.518631 -22.783777
74.784439 18.618507 -21.312822
71.155762 17.895853 -19.895973
67.785736 17.226706 -18.611574
64.573517 16.592594 -17.445536
61.748489 16.028873 -16.324999
309.63242 68.685143 -164.14241
311.99231 68.600609 -156.33789
315.45752 68.7332 -148.91498
450.45215 94.655869 -186.18532
452.2576 94.247574 -174.81044
456.2179 94.255119 -164.06177
309.61475 64.984322 -105.98961
257.7782 54.739994 -87.112831
212.87155 45.957657 -72.21405
182.72318 40.046005 -61.966492
164.04695 36.330772 -54.783241
148.4386 33.234257 -48.912678
135.4016 30.650015 -44.04282
124.42149 28.472391 -39.923977
115.14233 26.631592 -36.435181
107.30974 25.073349 -33.42075
100.22213 23.667393 -30.75721
90.643661 21.853121 -28.506748
85.805061 20.879713 -26.474791
81.873352 20.073606 -24.585545
79.239449 19.498531 -22.768549
74.949333 18.654297 -21.263041
71.117462 17.897268 -19.871679
67.723694 17.223822 -18.592705
64.5644 16.597977 -17.418844
61.614235 16.013748 -16.325733
309.62445 68.740593 -164.08818
312.08267 68.675209 -156.31607
315.55008 68.807785 -148.88464
445.95056 93.851089 -184.55859
449.16193 93.722878 -173.7332
452.97858 93.707245 -163.01472
309.70993 65.053444 -105.92223
257.86417 54.79821 -87.051765
212.46315 45.915855 -72.068352
182.5134 40.036407 -61.869766
162.55611 36.083138 -54.517067
148.43211 33.256287 -48.856247
135.35483 30.662518 -43.985893
124.35751 28.479965 -39.869251
115.18816 26.657148 -36.389008
107.33597 25.094017 -33.374741
100.07355 23.656281 -30.71244
90.605003 21.859722 -28.465609
85.718643 20.877317 -26.437872
82.098984 20.123703 -24.529047
79.364014 19.530714 -22.716537
74.82019 18.643173 -21.239334
70.965813 17.881956 -19.855173
67.676987 17.225382 -18.563293
64.443802 16.587053 -17.405394
61.69878 16.035549 -16.272234
309.84912 68.837074 -164.13744
312.1937 68.7481 -156.30836
315.61621 68.871307 -148.85141
441.80173 93.106041 -183.06357
444.90833 92.963699 -172.30594
448.59653 92.929787 -161.65282
309.87451 65.130447 -105.88017
258.3425 54.925941 -87.081696
211.66759 45.798027 -71.85717
182.31636 40.026047 -61.781498
161.43179 35.899685 -54.308094
148.36043 33.264008 -48.798294
135.36819 30.683672 -43.939716
124.17369 28.464069 -39.811455
115.13885 26.663979 -36.343109
107.21499 25.087074 -33.33009
100.06039 23.667225 -30.671896
90.443634 21.84366 -28.431742
85.663712 20.878998 -26.403477
82.123642 20.138403 -24.490698
79.236641 19.519253 -22.69252
74.696007 18.631735 -21.218794
70.972351 17.891788 -19.819895
67.711136 17.239237 -18.524183
64.556145 16.613081 -17.351313
61.559296 16.02039 -16.269939
310.04852 68.928551 -164.1761
312.32571 68.82534 -156.30899
315.84796 68.967773 -148.87863
438.25751 92.478577 -181.77499
440.55893 92.184669 -170.85028
444.41257 92.189339 -160.34952
309.93759 65.188248 -105.81389
258.26825 54.949718 -86.994377
211.67509 45.830074 -71.796288
182.67354 40.118362 -61.783268
161.19762 35.879524 -54.223454
148.2863 33.271278 -48.739326
135.22696 30.676889 -43.878952
124.1171 28.470924 -39.761982
115.03717 26.661493 -36.294815
107.17014 25.093515 -33.286846
99.917778 23.655537 -30.631351
90.667534 21.894312 -28.387596
85.607986 20.880518 -26.368818
81.916397 20.113604 -24.468792
79.262665 19.533632 -22.653311
74.72493 18.645893 -21.179934
70.927032 17.893011 -19.791729
67.617271 17.232044 -18.505856
64.388397 16.593525 -17.350134
61.571178 16.029606 -16.235023
310.13577 69.000557 -164.16533
312.37048 68.888206 -156.27237
315.89426 69.030533 -148.83472
434.88892 91.888733 -180.54204
437.65231 91.689758 -169.8416
441.5358 91.70443 -159.41641
310.1088 65.269379 -105.76783
258.35471 55.006039 -86.935982
211.06891 45.749187 -71.616737
183.0968 40.224586 -61.791882
160.95427 35.858971 -54.133907
148.17972 33.273838 -48.673473
135.30911 30.711578 -43.835468
124.13112 28.491432 -39.714188
114.98138 26.668055 -36.245445
107.09451 25.09536 -33.240082
99.61618 23.616781 -30.58857
90.784042 21.927097 -28.343578
85.702408 20.908485 -26.324142
81.730995 20.09309 -24.443035
79.233673 19.539318 -22.617079
74.647964 18.642859 -21.151154
70.980728 17.911165 -19.747099
67.673035 17.249916 -18.460426
64.420853 16.606991 -17.308588
61.47908 16.022461 -16.220194
310.24744 69.071594 -164.17
312.62799 68.987747 -156.32533
316.08365 69.115913 -148.8497
430.88205 91.164246 -179.10442
433.2749 90.898979 -168.38571
438.40048 91.160843 -158.42221
310.22815 65.335304 -105.7187
258.46088 55.061672 -86.890045
211.83472 45.921314 -71.700417
183.12921 40.255314 -61.74316
160.46939 35.791229 -54.017136
147.9823 33.257359 -48.603092
135.22206 30.71347 -43.781944
124.07713 28.497755 -39.667065
114.908 26.669643 -36.200325
107.18046 25.124018 -33.201271
99.296204 23.573185 -30.550739
90.649544 21.914948 -28.310318
85.545776 20.891983 -26.296129
81.500076 20.063528 -24.424654
