# .PCD v0.7 - Point Cloud Data file format
VERSION 0.7
FIELDS x y z
SIZE 4 4 4
TYPE F F F
COUNT 1 1 1
WIDTH 1467
HEIGHT 1
VIEWPOINT 0 0 0 1 0 0 0
POINTS 1467
DATA ascii
2.3770077 0.5905022 0.49742296
2.7146778 0.67935753 0.38647595
3.0118673 0.75775278 0.28580523
3.2778106 0.8281256 0.19256134
3.5059614 0.88816953 0.11742811
3.7127299 0.94278878 0.046307128
3.9034414 0.99341142 -0.023026975
4.0673718 1.0364892 -0.075973824
4.2157245 1.0754722 -0.12389843
4.3638115 1.1151092 -0.18272062
4.4881525 1.147718 -0.2218938
-6.5172577 -1.5054225 -1.3968784
-6.4323792 -1.5081786 -1.0438033
-6.3307953 -1.5063229 -0.698116
-6.4395308 -1.5587502 -0.31787518
-6.3275113 -1.5544025 0.029283069
-6.2385077 -1.5557487 0.37649602
-6.1188889 -1.5489359 0.71469885
-6.0053377 -1.5437607 1.055128
-5.9080958 -1.5426874 1.3964759
-9.5525379 -2.5554676 3.070437
-9.4292908 -2.5553949 3.5222979
-2.3148823 -0.63102305 1.0384724
-5.5352273 -1.5431513 2.7736869
-5.146244 -1.4609176 2.979917
-2.1243856 -0.63506132 1.7987156
-1.3982131 -0.44827351 1.6885118
-0.38933358 -0.17759657 1.3692355
0.50598586 0.064856559 1.0526839
0.96546215 0.18424585 0.96494633
1.4934944 0.32566467 0.80147076
1.9798031 0.45720574 0.63181019
2.3803272 0.5652982 0.49562812
2.7193737 0.65659112 0.38341096
3.0133655 0.73581398 0.28531763
3.2792027 0.80774236 0.19210829
3.5094452 0.86980724 0.11490772
3.7139468 0.92496228 0.045911025
3.9066758 0.97737855 -0.025616102
4.0691271 1.0209676 -0.077085234
4.216073 1.0603826 -0.12344775
4.3628187 1.1004761 -0.1806329
4.4890604 1.1344538 -0.22218932
-6.5189834 -1.5778692 -1.3978713
-6.4331322 -1.5804523 -1.0447285
-6.331552 -1.5785605 -0.69887209
-6.4834733 -1.6435943 -0.31082353
-6.3786888 -1.641184 0.039247759
-6.248383 -1.6315789 0.37837172
-6.1138644 -1.6206096 0.71306354
-6.0012426 -1.6155797 1.0537674
-5.9213247 -1.6192452 1.4007816
-9.5478239 -2.6495528 3.0689583
-9.418252 -2.6477246 3.518429
-2.3175011 -0.68445981 1.0399131
-5.5355201 -1.6161982 2.7744544
-2.1511073 -0.67591 1.5269771
-2.2035773 -0.71070075 1.840528
-1.4050964 -0.49895445 1.693087
-0.38811615 -0.21990946 1.3692833
0.5060811 0.027573565 1.0534033
1.007983 0.16227078 0.9375481
1.4980605 0.29553089 0.79907233
1.9809459 0.42896384 0.63176835
2.3821161 0.53964853 0.49504596
2.723335 0.63364279 0.38096923
3.0133853 0.71340239 0.28612742
3.2850757 0.78877789 0.18757993
3.5071373 0.84962946 0.11796967
3.7180395 0.9080599 0.042622384
3.9071398 0.96047342 -0.025256975
4.0722728 1.0059116 -0.079723544
4.2184415 1.0459551 -0.12534697
4.3631501 1.0862588 -0.18015262
4.4925137 1.1220583 -0.22576222
-6.516799 -1.6493608 -1.3992485
-6.4337459 -1.6527535 -1.045693
-6.3264818 -1.6493155 -0.7005223
-6.4557633 -1.7096194 -0.3164933
-6.3557577 -1.7084188 0.033903051
-6.273068 -1.7116386 0.38372904
-6.1078129 -1.6919922 0.71114784
-6.0007243 -1.6883903 1.0534596
-5.9144101 -1.6903458 1.3985311
-5.8983879 -1.7122208 1.7690725
-5.7865915 -1.7073545 2.1106153
-2.3227305 -0.73872429 1.0424553
-5.5304036 -1.6877444 2.772789
-5.1337638 -1.599635 2.975441
-2.7049968 -0.91170508 2.1016269
-1.3701602 -0.53735608 1.6745136
-0.38092637 -0.26046687 1.3658329
0.51114839 -0.0082177771 1.0510037
1.0308676 0.1348293 0.92317939
1.4986265 0.2641964 0.79949427
1.9845605 0.40145859 0.62993163
2.3862908 0.5147447 0.4926129
2.7250223 0.61001235 0.38042009
3.0157032 0.69170934 0.28496489
3.2835624 0.76748508 0.18981913
3.5099485 0.83106345 0.11613042
3.7178876 0.88979942 0.043650024
3.9062438 0.9431017 -0.023422912
4.0747542 0.99066097 -0.081611708
4.2228251 1.0322307 -0.12959467
4.3621993 1.0715911 -0.17807847
4.4947243 1.1092644 -0.22770607
-6.5275164 -1.7286111 -1.3995416
-6.4264135 -1.7271922 -1.0476955
-6.3304949 -1.7267829 -0.70088476
-6.236793 -1.7792647 0.3746835
-6.11342 -1.7709513 0.71230078
-5.9989085 -1.7651755 1.0527569
-5.9115982 -1.7669127 1.3976159
-5.8747425 -1.7832485 1.7608191
-5.7980795 -1.7884876 2.1154168
-5.7098417 -1.790243 2.4642413
-5.5310383 -1.7652937 2.7737758
-5.1161823 -1.6697716 2.9677682
-2.2578204 -0.83695716 1.8702109
-1.3460677 -0.58148819 1.6620024
-0.37432793 -0.30366215 1.3627909
0.52892506 -0.042262662 1.0407283
1.0686399 0.11028925 0.89898336
1.5042683 0.23256187 0.79643965
1.9835538 0.37083367 0.63157988
2.3906133 0.48837653 0.49013162
2.7276134 0.58524495 0.37919265
3.0158904 0.66799706 0.28572625
3.2873545 0.7466833 0.18727036
3.5143201 0.81189895 0.11285283
3.7206807 0.87143719 0.041762721
3.9075298 0.92543709 -0.023841476
4.0739241 0.97334373 -0.079720952
4.2199836 1.0151446 -0.12528469
4.3671713 1.0581323 -0.18322586
4.4951124 1.0950415 -0.22722024
-6.5158801 -1.7933903 -1.4017742
-6.4280906 -1.7956278 -1.0485123
-6.3273978 -1.7938904 -0.70222884
-6.4225698 -1.8471727 -0.3239539
-6.3170772 -1.8443077 0.024662698
-10.049099 -2.9394217 1.2720001
-6.1102204 -1.8389137 0.7111513
-6.0002937 -1.8343661 1.0530127
-5.9221082 -1.8387955 1.4010366
-5.7616477 -1.8469088 2.1016026
-5.6834712 -1.8516477 2.4536479
-5.527802 -1.8331473 2.7729447
-5.1139126 -1.7360514 2.9674435
-2.8536103 -1.0704876 2.1804032
-1.3657278 -0.63320595 1.6736532
-0.38655627 -0.34765762 1.3707744
0.53810525 -0.074433908 1.0357418
1.0922393 0.085712865 0.8841058
1.5063884 0.20357409 0.7957496
1.9918348 0.34655741 0.62623769
2.3908424 0.46379092 0.49077129
2.7277322 0.56251496 0.37992221
3.0166698 0.64711338 0.28588068
3.288779 0.72755522 0.18680672
3.514926 0.79378045 0.11312393
3.7226379 0.85494953 0.040639419
3.9100897 0.91022462 -0.025700983
4.0750256 0.95856702 -0.08007957
4.2236834 1.0021132 -0.12874569
4.3655605 1.0440514 -0.18034881
4.4985662 1.0835183 -0.23079313
-6.5152822 -1.8654367 -1.4030793
-6.4245915 -1.8669193 -1.0500352
-6.3305387 -1.8670374 -0.70270711
-10.050396 -3.0354805 1.2716659
-6.1075425 -1.9113424 0.71011156
-5.9948545 -1.905894 1.0512424
-5.9130278 -1.9093322 1.3980812
-9.5401573 -3.0295322 3.067076
-2.2987328 -0.89007556 1.0334684
-5.5241513 -1.9051936 2.7719786
-5.1060414 -1.8048052 2.9644675
-2.5626481 -1.036943 2.0300694
-1.3595581 -0.67991209 1.6710629
-0.38756934 -0.39079821 1.3722146
0.550816 -0.10757852 1.0286096
1.0915028 0.051513251 0.88545603
1.5111864 0.17358573 0.79328156
1.9939549 0.31862473 0.62554765
2.3943517 0.43872339 0.48891491
2.7318275 0.53967583 0.37743682
3.0243673 0.62723947 0.28009224
3.2881026 0.70648068 0.18834138
3.5170951 0.77504349 0.11194967
3.7247014 0.83743411 0.039481699
3.9155276 0.89504218 -0.030555902
4.0796161 0.94409126 -0.084268458
4.2248077 0.98729098 -0.12911174
4.368567 1.03078 -0.1830921
4.4957781 1.0689179 -0.22621238
-6.5120287 -1.9325262 -1.4045825
-6.4260845 -1.9354005 -1.0509118
-6.3234959 -1.9330628 -0.7046693
-10.053804 -3.1266463 1.271857
-6.1060314 -1.9798504 0.70939761
-5.9933157 -1.9742934 1.0506299
-5.9159775 -1.9791778 1.3990413
-9.5423908 -3.1203153 3.0680814
-2.3242688 -0.94776016 1.0445466
-5.5250626 -1.9744022 2.7730553
-5.0965834 -1.8688567 2.9606869
-2.629241 -1.1107267 2.0654464
-1.3399701 -0.71939605 1.6609902
-0.39792705 -0.4345209 1.3791449
0.5617615 -0.13900387 1.0225503
1.0938998 0.020306153 0.88467586
1.5158445 0.14543478 0.79085326
1.9959831 0.29235655 0.62488747
2.3985558 0.4154568 0.48647824
2.7350833 0.5180009 0.37560901
3.0237021 0.60587388 0.28153917
3.2895823 0.6873616 0.18785979
3.5170281 0.7566703 0.11290192
3.7160468 0.81718355 0.049128942
3.9146547 0.87864459 -0.028729351
4.0800781 0.92910171 -0.083878726
4.2252254 0.97310185 -0.12868339
4.3708777 1.0181216 -0.18502048
4.5005298 1.0579095 -0.23143224
-6.5098996 -2.0084839 -1.4061635
-6.4248981 -2.0117037 -1.0522703
-6.3242035 -2.0098751 -0.70560944
-10.040359 -3.2241056 1.2679789
-6.1019111 -2.0562174 0.70794255
-5.9947076 -2.0522521 1.0508603
-5.9118285 -2.0555353 1.3976909
-9.532773 -3.2187667 3.0648952
-2.3172791 -1.0017062 1.0420196
-5.5225987 -2.051224 2.7727036
-5.0882058 -1.9415579 2.957546
-2.2789333 -1.0561801 1.8842672
-1.332606 -0.76842153 1.6578132
-0.39023149 -0.47747046 1.3755238
0.57307619 -0.17455862 1.0163709
1.100744 -0.013393172 0.88106173
1.5200241 0.11344538 0.78888071
1.9975405 0.26253191 0.62471074
2.4006898 0.38842455 0.48578361
2.7355196 0.49251503 0.37623513
3.0247786 0.5824526 0.28160298
3.2927604 0.66638708 0.18594904
3.5178902 0.7363143 0.11308339
3.7260554 0.80142087 0.040013414
3.9153509 0.86078078 -0.028439613
4.0807099 0.9122684 -0.083550014
4.2304425 0.95891535 -0.13376053
4.371398 1.0031056 -0.18460159
4.5016313 1.0439513 -0.2317908
-6.5150275 -2.0781109 -1.4069375
-6.4233418 -2.0794115 -1.0535569
-6.3197722 -2.0767009 -0.70721358
-6.4117393 -2.1333303 -0.32914743
-10.042597 -3.3150442 1.2678729
-6.1011057 -2.1250169 0.70739836
-5.9929385 -2.1206872 1.0501728
-5.9100318 -2.1240346 1.3971061
-9.5328999 -3.309041 3.0651598
-9.4048786 -3.3075035 3.5163093
-2.3178194 -1.0518143 1.0426155
-5.5198436 -2.1193597 2.7721372
-2.1752772 -1.0499678 1.5430726
-2.2370718 -1.093263 1.8632957
-1.334939 -0.81494576 1.659935
-0.3744705 -0.5125978 1.3670628
0.58158177 -0.20659357 1.0118558
1.1163229 -0.040061567 0.87156171
1.5207305 0.083993733 0.78926295
2.0028341 0.23739159 0.62166727
2.4049664 0.36522162 0.48331735
2.7419038 0.47197706 0.37185255
3.0286918 0.56267869 0.27909294
3.2965126 0.64809579 0.18341932
3.520052 0.7187233 0.11191778
3.7295289 0.78551257 0.037418243
3.9180014 0.84565198 -0.030334746
4.0818944 0.89753169 -0.083935603
4.2289124 0.9439894 -0.13101183
4.3718076 0.98972863 -0.18414678
4.5020008 1.0313011 -0.23129882
-6.5098281 -2.1532495 -1.4088519
-6.4247456 -2.1566062 -1.0546608
-6.3230491 -2.1544323 -0.70782167
-6.4036036 -2.2086785 -0.33151928
-10.047452 -3.418225 1.2682829
-6.0994692 -2.2022569 0.70658964
-5.9894557 -2.1972547 1.0489558
-5.9083719 -2.2012565 1.3965658
-9.5292711 -3.4094748 3.0641179
-9.4065685 -3.4096656 3.5174775
-2.3230751 -1.1097896 1.0452445
-5.5171499 -2.1961904 2.7717104
-2.1916349 -1.1116909 1.5517398
-2.135452 -1.1159657 1.8113385
-1.3053769 -0.85636717 1.6444732
-0.3750686 -0.55823076 1.3683679
0.60126173 -0.23904663 1.0004629
1.1338842 -0.069849774 0.86086416
1.525803 0.052340996 0.78669971
2.007611 0.20873126 0.61912227
2.4048431 0.3373799 0.48443183
2.7439504 0.44707322 0.37118641
3.0343504 0.54093099 0.27519837
3.2982736 0.62663919 0.18284616
3.5217021 0.69864929 0.11138067
3.7310731 0.76674831 0.036915619
3.9222221 0.82912618 -0.03376117
4.0866461 0.88227373 -0.088177137
4.2288718 0.92781007 -0.12987013
4.3730202 0.97496372 -0.18454137
4.5018873 1.0168463 -0.23003748
-6.5063996 -2.2289526 -1.4106339
-6.4222665 -2.2326729 -1.0562419
-6.3196244 -2.2301626 -0.70943457
-6.3991556 -2.2851636 -0.33324307
-10.041938 -3.5182312 1.2662361
-6.0949802 -2.278615 0.70501465
-5.9877391 -2.2744217 1.0482579
-5.913857 -2.2808888 1.3983511
-9.5327282 -3.512301 3.0656054
-9.409936 -3.5125008 3.5192997
-2.3229244 -1.1660644 1.0456156
-5.5160613 -2.2736216 2.7720222
-2.1774979 -1.1632358 1.5456079
-2.1205578 -1.1673105 1.8044862
-1.2876245 -0.90155447 1.6355863
-0.36800754 -0.60125297 1.3651814
0.60860163 -0.27564749 0.99682546
1.1449468 -0.10175721 0.85449672
1.5236778 0.018132273 0.78921598
2.0053403 0.17754239 0.62184197
2.4063234 0.31010205 0.48430422
2.7445021 0.42161456 0.37177515
3.0370371 0.51811922 0.2739158
3.2985923 0.60463679 0.18361272
3.5248251 0.67913914 0.10943377
3.7397268 0.75072181 0.029219458
3.918834 0.80967963 -0.029063122
4.0853195 0.8646664 -0.085584529
4.2308459 0.91241211 -0.13107702
4.3768387 0.96125025 -0.18813695
4.5017972 1.0023779 -0.22878374
-6.5096202 -2.2939775 -1.4115903
-6.4197855 -2.2959604 -1.0576375
-6.3086338 -2.2907121 -0.71200931
-6.4106164 -2.3538175 -0.3320277
-10.042291 -3.6032207 1.2656785
-6.0969815 -2.3441582 0.70522177
-5.9869442 -2.3389916 1.0478599
-5.9093862 -2.3443489 1.396896
-9.5275068 -3.5953805 3.0639615
-9.4020224 -3.594671 3.516664
-2.31725 -1.2111151 1.0436007
-5.5150919 -2.3381729 2.772265
-2.175355 -1.2094505 1.5451865
-2.1166394 -1.2129887 1.8032109
-1.2637166 -0.93586314 1.6231352
-0.37827292 -0.64282918 1.3720818
0.63116533 -0.30019656 0.98349148
1.1539806 -0.12834385 0.84934169
1.533227 -0.0062985946 0.78337103
2.0082541 0.15325703 0.62056351
2.4113548 0.28876376 0.48123804
2.7462673 0.40086746 0.37120056
3.0379231 0.49860904 0.2740356
3.2993796 0.58648199 0.18379469
3.5276964 0.6630035 0.10757499
3.7353871 0.73292166 0.034533281
3.9207761 0.79529947 -0.030205371
4.0871754 0.85114759 -0.086728849
4.2319574 0.8993699 -0.13143864
4.3746562 0.94765043 -0.18448554
4.5027881 0.99074829 -0.22910631
-6.5060072 -2.3697078 -1.4134326
-6.420866 -2.3732643 -1.0588404
-6.3219571 -2.3719089 -0.7111842
-6.466835 -2.4503403 -0.3230693
-6.3627977 -2.4477208 0.028499745
-6.222188 -2.4324946 0.36658084
-6.0922618 -2.420516 0.7035715
-5.9849505 -2.4161863 1.0470718
-5.906436 -2.4213345 1.3959357
-9.5252457 -3.6964781 3.0634208
-9.3988047 -3.6954417 3.5159531
-2.3231299 -1.2695727 1.0465168
-5.5120311 -2.4150403 2.771713
-2.1749504 -1.2657071 1.5457512
-2.1247706 -1.272365 1.8083663
-1.2475271 -0.98123223 1.615141
-0.34764633 -0.67731071 1.3550012
0.62783915 -0.34048116 0.98657274
1.1667488 -0.15941444 0.84186673
1.5464814 -0.034822524 0.77510172
2.0107892 0.12379628 0.6197384
2.4129138 0.26151323 0.48108482
2.7491906 0.37628186 0.36986509
3.0384235 0.47495136 0.27469498
3.3019757 0.56532556 0.18251154
3.5315998 0.643839 0.10491803
3.7363079 0.71391177 0.034725759
3.9209173 0.77716285 -0.029225059
4.0906377 0.83544123 -0.089476399
4.2346344 0.88427478 -0.1334383
4.3778701 0.9337123 -0.18729638
4.5058832 0.97759783 -0.23195013
-6.5022092 -2.4454288 -1.4153349
-6.4208374 -2.4502947 -1.0602124
-6.3181629 -2.4476755 -0.71291715
-6.4629302 -2.5275352 -0.32476041
-6.3625779 -2.5261252 0.027647834
-6.2581372 -2.5228963 0.374428
-6.0892296 -2.4974923 0.7023626
-5.9864883 -2.4946542 1.0473214
-5.9051919 -2.4989567 1.3955308
-5.8784566 -2.5223961 1.7639503
-5.7529745 -2.511663 2.1015766
-2.3191457 -1.3246741 1.0453039
-5.5106182 -2.4925351 2.7719252
-2.1761811 -1.3226185 1.5471302
-0.079433523 -0.58418959 0.74504274
-0.032389928 -0.58622694 0.94154519
0.027739363 -0.58377123 1.1341368
0.64851493 -0.37190652 0.97459757
1.188527 -0.18695611 0.82841027
1.5557377 -0.064719811 0.76965815
2.0149572 0.094944894 0.61772156
2.4176252 0.23547241 0.47848302
2.7513893 0.35142356 0.36914945
3.0434623 0.45307636 0.27141649
3.3053443 0.54449654 0.18054481
3.5311995 0.62297368 0.10643483
3.7386646 0.69548404 0.033466585
3.9266224 0.76129997 -0.03416704
4.0914183 0.81864798 -0.08919017
4.2353563 0.86837196 -0.13310917
4.3772373 0.91816235 -0.18532568
4.5083656 0.96421355 -0.23398262
-6.5009661 -2.5134642 -1.4168501
-6.4186344 -2.5180938 -1.0617036
-6.3178148 -2.5160744 -0.71403277
-6.4025064 -2.5768516 -0.3363359
-6.2205491 -2.5797257 0.3650451
-6.0878248 -2.5663826 0.70162326
-5.9813786 -2.5622168 1.0456302
-5.9027944 -2.5675466 1.3947505
-5.8822975 -2.5935967 1.7655072
-5.7835145 -2.5922961 2.1138093
-5.6912379 -2.5931418 2.462538
-5.5089574 -2.5613346 2.7719431
-2.1752574 -1.3725352 1.5473876
-0.090706944 -0.62650245 0.75155693
-0.034999464 -0.62540191 0.943757
0.031878415 -0.620381 1.1325675
0.65399867 -0.40452352 0.97206843
1.2034848 -0.21291496 0.81939453
1.5647638 -0.090933457 0.76428956
2.0181012 0.069095135 0.61636811
2.4182229 0.21093236 0.47900265
2.7564301 0.33054903 0.36597213
3.0445552 0.43229282 0.27146894
3.3070543 0.52546847 0.17998824
3.532799 0.60519165 0.10591418
3.7380409 0.67797494 0.035140023
3.923872 0.7439819 -0.030186737
4.0940905 0.80454981 -0.091134265
4.2346225 0.85363883 -0.13117769
4.3790584 0.90534663 -0.18650673
4.506968 0.95074654 -0.23107891
-6.5017323 -2.5907772 -1.418377
-6.4137073 -2.5935786 -1.0636973
-6.3165903 -2.5928144 -0.71543384
-6.4414134 -2.668581 -0.3305091
-10.020067 -3.9924321 1.257359
-6.089149 -2.6449962 0.70155019
-5.9753475 -2.6381562 1.0436395
-5.9021955 -2.6455326 1.3945556
-5.7506404 -2.6589942 2.1014833
-5.682476 -2.6686449 2.459518
-5.5064216 -2.6385565 2.7716758
-2.1789203 -1.4304926 1.5499723
-0.091189884 -0.66974306 0.7525484
-0.028647136 -0.66604108 0.94110131
0.034837861 -0.66221184 1.1318264
0.66984081 -0.43746796 0.96316701
1.2228901 -0.24092959 0.80754459
1.5853102 -0.11621028 0.75091588
2.0208204 0.039698027 0.61548305
2.4222391 0.18463697 0.47698131
2.7556436 0.30449924 0.36776477
3.0481572 0.4098812 0.26947424
3.3104768 0.50468493 0.17799808
3.5375087 0.58640015 0.10253271
3.7446992 0.6613481 0.029551659
3.9282434 0.72760975 -0.033668246
4.0962739 0.7883504 -0.092385046
4.2373734 0.8385874 -0.13320139
4.3804045 0.89062721 -0.18694475
4.5082402 0.9368248 -0.23149297
-6.4979806 -2.6623595 -1.4202645
-6.4156208 -2.667171 -1.0648272
-6.3147264 -2.6650884 -0.7168808
-6.428216 -2.7381535 -0.33382627
-10.011356 -4.0858717 1.2545239
-6.0788136 -2.7151597 0.69841427
-5.9769311 -2.7125127 1.0439041
-5.900075 -2.7186797 1.3938653
-9.5160618 -4.0846252 3.0612118
-9.3929615 -4.0848346 3.5158458
-2.2943668 -1.4757888 1.0362368
-5.504117 -2.7115941 2.7714782
-2.1775823 -1.4835202 1.5500951
-0.084955037 -0.70807207 0.75001496
-0.019077575 -0.70300585 0.93662423
0.035152193 -0.70270568 1.1326123
0.67397237 -0.47266793 0.96157014
1.2527347 -0.26262265 0.78869581
1.6161606 -0.13529281 0.73023313
2.0257339 0.01289323 0.61288756
2.4269304 0.16019699 0.47437999
2.7608786 0.2823149 0.36452436
3.0509315 0.38847008 0.26816317
3.3130915 0.48481098 0.17670892
3.5385461 0.56724471 0.10265717
3.7442219 0.64281118 0.031171573
3.9270203 0.70986414 -0.031211367
4.094348 0.7713052 -0.089063257
4.2387424 0.82384157 -0.13364699
4.3836279 0.87759954 -0.18975852
4.5082097 0.923114 -0.23025854
-6.4960461 -2.734597 -1.4220046
-6.4117575 -2.7388265 -1.0666727
-6.3108864 -2.7367165 -0.71862864
-6.4186158 -2.8089447 -0.33653075
-10.011751 -4.1826124 1.2538121
-6.0858455 -2.791636 0.6998626
-5.9756823 -2.7859235 1.0433307
-5.8987842 -2.7921908 1.3934454
-9.5216198 -4.1833768 3.0634665
-9.393054 -4.1815662 3.5164342
-2.3221712 -1.5397767 1.0483835
-5.4982343 -2.7832952 2.7696774
-2.181335 -1.5385578 1.5527148
-0.070982181 -0.7433449 0.7434625
-0.014516071 -0.74187154 0.93494737
-0.22911195 -0.84803575 1.2899702
0.67729127 -0.5081774 0.96048993
1.2703879 -0.28886339 0.77796841
1.6542554 -0.15106459 0.70445567
2.0283613 -0.014830282 0.61203241
2.4262271 0.1335468 0.47603744
2.7653782 0.25986695 0.3619014
3.0507367 0.36581287 0.26945701
3.3157353 0.46496433 0.17541626
3.5388877 0.54777998 0.10347041
3.7458904 0.62517476 0.030628461
3.9306586 0.69421971 -0.033938207
4.0951467 0.75543338 -0.088783041
4.240139 0.80911571 -0.13410155
4.3836546 0.86314106 -0.18859074
4.5138407 0.91199648 -0.23637687
-6.4958825 -2.8075168 -1.4236183
-6.4106193 -2.8114822 -1.0682075
-6.3134699 -2.8107004 -0.71945637
-6.4229059 -2.8847661 -0.33680886
-6.0789771 -2.8631003 0.69762719
-5.9751778 -2.8596892 1.0429716
-5.8945899 -2.864692 1.3920801
-9.518898 -4.2791719 3.0627759
-9.3858356 -4.2756157 3.5141926
-2.3224592 -1.5935683 1.0489814
-5.4966388 -2.8566787 2.7698243
-2.1954122 -1.5977432 1.5603577
-2.0813217 -1.5799885 1.7913859
-1.1775039 -1.2468245 1.5822308
-0.24684213 -0.89761591 1.3015208
0.69390142 -0.53831112 0.95109242
1.2758954 -0.31989777 0.77534163
1.685907 -0.16901946 0.68321216
2.0302434 -0.042872138 0.61175603
2.4286656 0.1081699 0.47524381
2.7661004 0.23583619 0.36243466
3.05582 0.345384 0.26615798
3.3169358 0.44449914 0.17545773
3.5435789 0.53019822 0.10009483
3.7482903 0.60786581 0.029361289
3.9322491 0.67768383 -0.034455851
4.0966449 0.73986161 -0.089270644
4.2402363 0.79378045 -0.13300498
4.3837042 0.84867084 -0.18743053
4.5157251 0.89918709 -0.23760234
-6.4945006 -2.8714867 -1.4251784
-6.4110985 -2.8761981 -1.069414
-6.310185 -2.8740425 -0.72102988
-6.4157729 -2.9477444 -0.33899239
-6.0663881 -2.9237044 0.69392002
-5.9735994 -2.9244049 1.0423186
-5.8929763 -2.929471 1.3915551
-9.5180578 -4.3643432 3.0627253
-9.3902493 -4.3628154 3.5164156
-2.3268147 -1.6426846 1.0512333
-5.4861293 -2.9178922 2.7658515
-2.1892118 -1.6427757 1.5580635
-2.0837078 -1.6282135 1.7934949
-1.1625105 -1.283289 1.574818
-0.24165258 -0.93307072 1.2993876
0.71999609 -0.56004059 0.9356128
1.2754352 -0.34947681 0.77660179
1.707683 -0.18713784 0.66882604
2.0342252 -0.066648096 0.60979378
2.4316287 0.08613129 0.47392523
2.7635481 0.21323365 0.36557615
3.0539453 0.32462776 0.26882082
3.3194089 0.42704466 0.17422059
3.5459201 0.51391703 0.098870561
3.7455792 0.59042943 0.03317263
3.931602 0.66215765 -0.032702636
4.0979857 0.72612721 -0.089707159
4.2434783 0.78171068 -0.13575262
4.3842568 0.83612615 -0.18702221
4.5162282 0.88733637 -0.23715398
-6.494668 -2.9489629 -1.4269007
-6.4102864 -2.9534106 -1.0710406
-6.3121696 -2.9522738 -0.72205251
-6.4194627 -3.0278766 -0.33946013
-10.014493 -4.468379 1.2520278
-6.0726824 -3.0045283 0.6951282
-5.9724956 -3.0024273 1.0417643
-5.8945441 -3.0086303 1.3920653
-9.5145063 -4.4656777 3.0617645
-9.384017 -4.4630675 3.5146091
-2.3311007 -1.7013606 1.0535526
-5.4786615 -2.9933405 2.7634208
-2.1872287 -1.6989866 1.5579764
-2.0638139 -1.6768569 1.784181
-1.1492146 -1.3288126 1.5685458
-0.21321037 -0.96636081 1.2836843
0.74094832 -0.59009266 0.92354763
1.2909451 -0.37821901 0.76740026
1.7171701 -0.21567099 0.66330737
2.0371292 -0.095945232 0.60884863
2.4335103 0.058962606 0.473667
2.7736123 0.19180429 0.35845315
3.0592146 0.30298924 0.26546723
3.3237221 0.40671587 0.1715022
3.5471742 0.49368832 0.098924614
3.7502434 0.5730477 0.029697921
3.9340267 0.64497596 -0.034007933
4.1009655 0.71029168 -0.091757357
4.2469959 0.76706666 -0.13859019
4.3869958 0.82204968 -0.18909016
4.5151029 0.87226582 -0.23433875
-6.4814754 -3.0215554 -1.429862
-6.4065175 -3.0295956 -1.0730479
-6.3074088 -3.028095 -0.72410607
-6.4043427 -3.1009965 -0.34327093
-6.068728 -3.0815501 0.69361907
-5.9693961 -3.079767 1.0406162
-5.890533 -3.085716 1.3907598
-9.5162134 -4.5691681 3.0626819
-9.3829556 -4.5654478 3.514822
-2.3273249 -1.7569168 1.0524917
-2.2363753 -1.7477938 1.2945508
-2.1842663 -1.7548611 1.5574323
-2.0463758 -1.7263553 1.7761645
-1.1248894 -1.3696064 1.556151
-0.19219662 -1.0024705 1.2723973
0.74960923 -0.6251471 0.91923416
1.2927425 -0.41269144 0.76736748
1.7275026 -0.24374005 0.65720749
2.0377009 -0.12626094 0.60965896
2.4393115 0.033513054 0.4703503
2.7768629 0.16743708 0.35701108
3.0615282 0.28005016 0.26471424
3.326601 0.38576868 0.1701332
3.5484607 0.4734596 0.098968148
3.7514174 0.55409235 0.02980799
3.9385424 0.62877667 -0.037530489
4.1019487 0.69351935 -0.091537163
4.2465892 0.75057632 -0.13676523
4.390399 0.80831528 -0.19196238
4.514626 0.85747266 -0.23234686
-6.4903007 -3.0980949 -1.4307649
-6.4058442 -3.1026976 -1.0746293
-6.3067784 -3.1011872 -0.72547561
-6.4007492 -3.174089 -0.34499863
-6.3004427 -3.1724608 0.0074244933
-6.1821814 -3.1633108 0.35096672
-6.0650959 -3.1543605 0.69221491
-5.9584446 -3.1496582 1.0371628
-5.8913174 -3.1604092 1.3910151
-9.5057583 -4.6621799 3.0592513
-2.3281939 -1.8112267 1.0533568
-5.4794512 -3.1464384 2.7656827
-2.2013824 -1.8159746 1.5666283
-2.041121 -1.777673 1.7744542
-1.1201885 -1.4156486 1.554621
-0.17223231 -1.0363063 1.26168
0.75157785 -0.66089314 0.9190917
1.2992423 -0.44317088 0.76414752
1.7368973 -0.2703265 0.65171903
2.0483961 -0.15042789 0.60286468
2.43958 0.0071811141 0.47133729
2.7822909 0.14549844 0.35370785
3.0659809 0.25943032 0.26202852
3.3235297 0.36332065 0.17418791
3.5518205 0.45535022 0.096950211
3.7574427 0.53848433 0.024917936
3.9416094 0.61294109 -0.039555036
4.1015224 0.67701989 -0.089783855
4.2507238 0.73716927 -0.14036158
4.3918185 0.79448092 -0.19242443
4.5190883 0.84592849 -0.2368602
-6.4871597 -3.1659212 -1.4326816
-6.4046135 -3.171315 -1.0761944
-6.3073435 -3.1705143 -0.72663021
-6.4393778 -3.2594151 -0.33925658
-6.3555036 -3.2643993 0.017872734
-6.1871562 -3.235357 0.35149357
-6.0526128 -3.2193031 0.68848819
-5.9651403 -3.2222593 1.0389242
-5.8888741 -3.2294815 1.3902198
-9.4993296 -4.7510986 3.0572424
-2.3275352 -1.8617893 1.0535624
-5.4829426 -3.2178752 2.7681575
-2.1730549 -1.8549039 1.5536392
-2.0454545 -1.8299547 1.7777073
-1.1224253 -1.4618635 1.5569096
-0.14415896 -1.0639297 1.2460966
0.75991607 -0.69169092 0.91488332
1.3136684 -0.46813846 0.75557488
1.7461081 -0.2950848 0.64629036
2.0495307 -0.17709629 0.60316175
2.443599 -0.015921721 0.469309
2.7815273 0.12219544 0.35549292
3.0680966 0.23908341 0.26133987
3.3306205 0.34680298 0.168825
3.5543737 0.43803215 0.095657125
3.755641 0.52028394 0.027941179
3.9425297 0.5971148 -0.039344419
4.105732 0.66371292 -0.09330865
4.2501864 0.72239792 -0.13850015
4.3931694 0.78147417 -0.19286403
4.5191221 0.83299178 -0.23564695
-6.488627 -3.2355757 -1.4342026
-6.4050956 -3.2406964 -1.0775979
-6.3050165 -3.238786 -0.72822183
-6.4201636 -3.3222203 -0.34369752
-6.3094811 -3.3164902 0.0075814384
-6.2178369 -3.3179002 0.35804614
-6.055625 -3.2904859 0.68885022
-5.9653339 -3.2923596 1.0387646
-5.866426 -3.2903585 1.3829136
-5.8720589 -3.3318801 1.7640414
-5.7319651 -3.3132064 2.0982018
-2.3267846 -1.9123794 1.0537384
-5.4793282 -3.2864199 2.7674253
-2.1765316 -1.9072495 1.5561693
-2.0352411 -1.8760422 1.7733808
-1.1119816 -1.5026209 1.552142
-0.13764153 -1.100776 1.243309
0.77322596 -0.7202329 0.90755618
1.3249152 -0.49439743 0.74914736
1.7538103 -0.32047981 0.64195877
2.0600879 -0.19947156 0.59641242
2.4453342 -0.040061567 0.46910423
2.7868729 0.10169391 0.3522166
3.0694957 0.21839993 0.26129881
3.3318763 0.32757473 0.16884831
3.5569501 0.42072317 0.094356321
3.7594926 0.50477588 0.025223091
3.9448543 0.58195227 -0.04061114
4.106595 0.64878702 -0.093049392
4.2555785 0.71057373 -0.1436343
4.3964572 0.76944059 -0.19569875
4.5179272 0.81940287 -0.23280917
-1.5312375 -1.3550807 -1.8795017
-6.4036837 -3.3180454 -1.0794141
-6.3073206 -3.3176091 -0.72931463
-6.2184892 -3.3199737 -0.38033509
-6.1162119 -3.3169816 -0.033024929
-6.1167588 -3.3556561 0.33360496
-6.0649247 -3.373147 0.69081473
-5.977241 -3.3761938 1.0420266
-5.8709898 -3.3711367 1.3843989
-5.8254805 -3.3917022 1.7476834
-5.7380567 -3.3950765 2.1010787
-5.6560102 -3.4005885 2.4551775
-5.4921651 -3.370882 2.7742803
-2.1293905 -1.9439411 1.5341337
-2.020076 -1.9261862 1.7666024
-1.1235917 -1.5587593 1.5598161
-0.13558519 -1.1445442 1.243306
0.78866887 -0.75199485 0.89903069
1.3463031 -0.5198471 0.73610002
1.7666806 -0.34703001 0.63412058
2.0789006 -0.22132835 0.58367509
2.4497375 -0.066075057 0.46695685
2.7879915 0.076362543 0.35262066
3.0704525 0.19481492 0.26180968
3.3326855 0.30563611 0.1694613
3.5576375 0.40019432 0.095056906
3.7600782 0.4855023 0.026010722
3.9480917 0.56522548 -0.042691197
4.1090231 0.63270599 -0.09437985
4.2552686 0.69408327 -0.14184083
4.3948231 0.7531867 -0.19222583
4.5218973 0.80684185 -0.23655011
-1.5187171 -1.3978121 -1.8818002
-6.4049544 -3.3965497 -1.0809512
-6.3020067 -3.3934665 -0.73154235
-6.2215347 -3.3993061 -0.3810184
-6.1099529 -3.3924568 -0.035284083
-6.0073781 -3.3887823 0.30721763
-5.9031367 -3.3842163 0.64755028
-5.8201623 -3.3887916 0.99547112
-5.7375464 -3.3932483 1.3409666
-5.6581078 -3.3991601 1.6882484
-5.6092796 -3.4187524 2.0515606
-2.3255205 -2.0265749 1.0543293
-2.2239628 -2.0121765 1.2924075
-2.1269002 -1.9998976 1.5338814
-1.9852651 -1.967435 1.7495942
-1.09729 -1.5980343 1.5463879
-0.13261639 -1.1879303 1.2427839
0.79267925 -0.78883213 0.8977254
1.3660769 -0.54578769 0.72413033
1.8217564 -0.3537426 0.59643596
2.107137 -0.23851924 0.56389713
2.4541826 -0.092061326 0.46479589
2.7891517 0.051022071 0.35301143
3.0714462 0.17123911 0.26230851
3.3371844 0.28548023 0.16668861
3.5605087 0.38072059 0.093660302
3.7649007 0.46833876 0.022490527
3.9458606 0.54574263 -0.038886018
4.1094637 0.61562437 -0.093442842
4.2536769 0.67689252 -0.13850775
4.3970499 0.73890662 -0.19353893
4.5252686 0.79400796 -0.23948407
-1.5139694 -1.4409436 -1.8833455
-6.4037285 -3.4698153 -1.0827127
-6.3035297 -3.4678595 -0.73271519
-6.2211685 -3.4730077 -0.38225409
-6.1123333 -3.467241 -0.035733819
-6.0115681 -3.4643033 0.30749503
-5.8999324 -3.4565723 0.64623135
-5.8159952 -3.4608195 0.99400389
-5.7270365 -3.4626117 1.337546
-5.6253448 -3.458873 1.6768048
-5.5306549 -3.4585183 2.0214987
-5.4222479 -3.4518695 2.3583269
-5.3474965 -3.4602649 2.7106948
-2.1676555 -2.0721893 1.5546728
-1.9694487 -2.0137591 1.7424418
-1.0510423 -1.6250848 1.5218042
-0.11324339 -1.2212931 1.2324752
0.80387193 -0.82017571 0.89183778
1.3856655 -0.56964564 0.71221477
1.8010803 -0.39383617 0.61228269
2.1414421 -0.2507619 0.5394972
2.4577293 -0.11689229 0.46328133
2.7932274 0.028519494 0.3509165
3.0797737 0.15257479 0.25630894
3.3364732 0.26401457 0.16866665
3.5661478 0.36380273 0.089508109
3.7668321 0.45082971 0.021861928
3.9511049 0.53105319 -0.043161687
4.113184 0.60118055 -0.096274309
4.2585645 0.66396761 -0.14291354
4.3972979 0.72443545 -0.19244319
4.5242167 0.77962774 -0.2366928
-1.5655624 -1.5073143 -1.8798839
-6.3995886 -3.5419436 -1.0848342
-6.3022089 -3.5411341 -0.73431545
-6.2114182 -3.5428348 -0.38514537
-6.1109147 -3.5405247 -0.036975753
-6.006422 -3.5359769 0.30556795
-5.899354 -3.5301101 0.64559287
-5.8154058 -3.5344217 0.99358875
-5.7182789 -3.5326841 1.3346957
-5.623683 -3.5320566 1.6764588
-5.5245428 -3.5297194 2.0196176
-5.4328251 -3.5304649 2.3635283
-5.3474307 -3.5342302 2.7116756
-2.1283598 -2.1085446 1.5364451
-1.9467759 -2.0567994 1.7317191
-1.0417446 -1.6687346 1.5178057
-0.085575208 -1.2505629 1.2172457
0.81348395 -0.85217422 0.88696265
1.394816 -0.59826964 0.70730394
1.8273628 -0.41169995 0.59491134
2.1898417 -0.25575545 0.50454968
2.4628587 -0.14094128 0.46053764
2.7943094 0.0045615924 0.35133272
3.0777261 0.12881705 0.25944227
3.3401723 0.24472266 0.16658635
3.5660949 0.34403786 0.090917893
3.7687864 0.4333297 0.021225818
3.9529395 0.51464474 -0.04375881
4.1142406 0.58536321 -0.096078075
4.258235 0.64831406 -0.14111963
4.4026661 0.71270204 -0.19771954
4.5250564 0.76624799 -0.23635396
-6.4395342 -3.5920148 -1.4479603
-6.3981318 -3.6152453 -1.0866709
-6.296988 -3.6128531 -0.73651898
-6.2117782 -3.6169643 -0.38628256
-6.1010871 -3.6102426 -0.039952282
-6.0076466 -3.6104248 0.30512625
-5.8959661 -3.6024933 0.64421409
-5.81282 -3.6072595 0.99258012
-5.7174954 -3.6062953 1.3344407
-5.6201911 -3.6044581 1.6754616
-5.5147977 -3.5992918 2.0163379
-5.4265604 -3.6016471 2.3616571
-5.3377142 -3.6038756 2.7082911
-2.1474457 -2.1714773 1.5467026
-1.9367982 -2.1055341 1.7276374
-1.0164552 -1.7048078 1.504899
-0.071896501 -1.2861996 1.2103508
0.81984192 -0.88563699 0.88414305
1.4064317 -0.62562919 0.70075637
1.8385425 -0.43659469 0.58823556
2.2092862 -0.27436501 0.49127656
2.4664807 -0.16570871 0.45900461
2.7992115 -0.01751345 0.3485848
3.0809135 0.1076424 0.25799072
3.3409812 0.22397554 0.1671994
3.5696375 0.32609218 0.08883442
3.7693706 0.41512024 0.022008058
3.9568512 0.49932757 -0.046568621
4.1179996 0.57098299 -0.098916106
4.2592421 0.63334268 -0.14088342
4.4029508 0.6982491 -0.19663581
4.529017 0.75457829 -0.24009177
-1.5638047 -1.6001898 -1.8824606
-6.3998194 -3.6943226 -1.0882645
-6.2977276 -3.691503 -0.73794687
-6.209672 -3.6944866 -0.38794652
-6.1008306 -3.6884832 -0.041038129
-6.0082235 -3.6890748 0.30447972
-5.892869 -3.679415 0.64287007
-5.8106098 -3.6846631 0.99166578
-5.712471 -3.682471 1.3328054
-5.6169686 -3.6814163 1.6745802
-5.517705 -3.6790147 2.0180101
-2.3141179 -2.2421322 1.0517945
-2.2437265 -2.2414591 1.3044161
-2.1763475 -2.2425416 1.5618234
-1.9187591 -2.1535501 1.7194313
-1.0075676 -1.7512591 1.5012321
-0.070383817 -1.3300132 1.2107468
0.82896394 -0.91990036 0.87967962
1.4263424 -0.65075135 0.68873596
1.8325403 -0.47167668 0.59383833
2.2148635 -0.30131531 0.48846492
2.4733808 -0.19038506 0.45497012
2.8042979 -0.040898308 0.34577692
3.0857594 0.085985668 0.25518295
3.3441443 0.20317388 0.16573168
3.5719099 0.30634555 0.088094793
3.7735956 0.39771122 0.019168429
3.9567974 0.48089075 -0.045014508
4.1185446 0.55391055 -0.098019108
4.2636304 0.61929905 -0.14456232
4.4039922 0.68333226 -0.19638661
4.5306025 0.74079847 -0.24060784
-1.5611956 -1.6392739 -1.883754
-6.396327 -3.758183 -1.0901814
-6.297924 -3.7569644 -0.73922133
-6.2070341 -3.7587652 -0.38950118
-6.1009159 -3.7539263 -0.041904677
-6.0037236 -3.7524893 0.30276304
-5.8947158 -3.7455859 0.6429069
-5.8105741 -3.7500701 0.99143147
-5.7160206 -3.7494967 1.3339605
-5.6186042 -3.7476139 1.6753912
-5.5201774 -3.7455859 2.019433
-2.2353029 -2.2533836 1.0191078
-2.0989141 -2.2213213 1.2393311
-2.0887032 -2.249063 1.5199128
-1.9042393 -2.1936891 1.712863
-1.0029124 -1.7912618 1.499717
-0.044771388 -1.354717 1.1966305
0.83088595 -0.95118928 0.87955225
1.4254906 -0.68014848 0.69039965
1.8267843 -0.50140101 0.59905505
2.2183764 -0.32432729 0.48699155
2.4874811 -0.20664801 0.44501501
2.813473 -0.057825282 0.33933344
3.0835273 0.064701937 0.25837636
3.3447444 0.18478248 0.16640675
3.573832 0.28989154 0.087469198
3.7739968 0.38155732 0.02001608
3.9598458 0.46718365 -0.047032971
4.1207972 0.5406673 -0.099292472
4.2625241 0.60499156 -0.14195162
4.4054027 0.67118961 -0.19684567
4.5307012 0.72861034 -0.23941554
-1.5542173 -1.6818141 -1.8855811
-1.4791821 -1.6750561 -1.6680827
-6.2988939 -3.8315756 -0.74057418
-6.2079811 -3.8334043 -0.39058554
-6.1008897 -3.8281102 -0.042915557
-6.0036359 -3.8266551 0.30197814
-5.8937211 -3.8192604 0.6421389
-5.8140292 -3.825882 0.99219352
-5.7167115 -3.8240538 1.3341855
-5.6147442 -3.8200698 1.674274
-5.5189605 -3.8192604 2.0194812
-2.0989411 -2.2428691 0.96224725
-1.969134 -2.2129898 1.1811436
-1.9216167 -2.2226677 1.4393194
-1.8627102 -2.2268789 1.6923298
-0.96912044 -1.8226235 1.4820982
-0.026852988 -1.3878978 1.1872454
0.83742809 -0.98450655 0.87667263
1.429985 -0.71080983 0.6886608
1.8182908 -0.53620088 0.60638094
2.2300835 -0.34643888 0.47954386
2.5119212 -0.22053704 0.42704892
2.8184631 -0.079736702 0.33655691
3.0912533 0.04591943 0.25298676
3.352195 0.16750982 0.16092673
3.574604 0.27049968 0.088148393
3.7760572 0.36410284 0.019345487
3.9617772 0.45082062 -0.04766164
4.1226182 0.5252502 -0.099885091
4.2668524 0.59186655 -0.14561099
4.4076619 0.65780985 -0.19816908
4.5322361 0.71560359 -0.23991516
-6.4229717 -3.8841941 -1.4573483
-1.4986118 -1.7345961 -1.6670167
-1.4439681 -1.736497 -1.4501439
-1.3909353 -1.7389618 -1.2342114
-1.3243915 -1.7353692 -1.0202575
-1.2597893 -1.7322948 -0.80901474
-5.8733635 -3.8928261 0.63618529
-5.8063917 -3.9054322 0.98965192
-5.7108579 -3.9044318 1.3322803
-5.6124759 -3.9020672 1.6737584
-5.5183601 -3.9020853 2.0198441
-1.9401929 -2.2260873 0.89600593
-1.8274552 -2.2034757 1.1176369
-1.7968099 -2.2209756 1.3794554
-1.7806448 -2.2458618 1.6507524
-0.95136428 -1.8672103 1.4735941
-0.014943701 -1.4288372 1.1815926
0.84041232 -1.0238814 0.8762055
1.441347 -0.74180782 0.68247199
1.8094574 -0.57493931 0.61411768
2.242974 -0.37111521 0.47137505
2.5512838 -0.22939628 0.39743152
2.8305905 -0.10071131 0.32800007
3.0926418 0.021133896 0.253351
3.3526833 0.14406133 0.16207615
3.5778117 0.25006178 0.086642139
3.7804852 0.3457661 0.016439831
3.9646504 0.43292952 -0.049107052
4.1246829 0.50803208 -0.10055719
4.2668495 0.57446659 -0.14392355
4.4095011 0.64246565 -0.19876771
4.5370712 0.70288789 -0.24454997
-6.4589558 -3.9698749 -1.456086
-6.3947802 -3.9846461 -1.0957446
-6.2934914 -3.9821632 -0.74450535
-1.3563554 -1.7662579 -1.2410066
-1.3001133 -1.7672493 -1.0258185
-1.2658478 -1.7781641 -0.80804521
-1.1927916 -1.7710059 -0.59984636
-1.1499953 -1.7781368 -0.38244393
-1.0944173 -1.7790918 -0.17024842
-1.0357428 -1.7785642 0.040967491
-0.96819639 -1.7739892 0.25067815
-1.0754085 -1.8542672 0.53214484
-1.0913725 -1.8911682 0.78383464
-1.1385764 -1.9444777 1.0588368
-1.6447371 -2.2276433 1.5807873
-0.91196454 -1.8923051 1.4527938
-0.0071469373 -1.4643648 1.1781605
0.8549037 -1.0509228 0.86824185
1.4513488 -0.76763934 0.67700189
1.9084921 -0.55223662 0.54509765
2.2529926 -0.39222622 0.46513712
2.5885668 -0.23421702 0.3692053
2.8309569 -0.12355044 0.32903337
3.0958354 0.0013327036 0.25190344
3.3549604 0.12530614 0.16133502
3.5792224 0.23216166 0.086645178
3.7803807 0.32820243 0.017938275
3.9665124 0.41756693 -0.04971312
4.1271076 0.4939248 -0.10188055
4.2665629 0.55963165 -0.14213765
4.4123368 0.63029563 -0.20086712
4.5354629 0.68885332 -0.24096532
-6.4544854 -4.046442 -1.4586514
-6.3883801 -4.0605674 -1.0984098
-6.2889524 -4.0589032 -0.74681711
-6.1997824 -4.0616865 -0.39604506
-6.0954461 -4.0574932 -0.047250148
-5.9971366 -4.0555739 0.29802024
-5.8552809 -4.0327983 0.63035399
-1.1289965 -1.8166933 -0.38880494
-1.0825247 -1.8219688 -0.17411916
-1.0212013 -1.8201495 0.035956133
-0.96960557 -1.8232692 0.25158396
-0.91605562 -1.825343 0.46554455
-0.86269861 -1.827617 0.68063933
-0.80618197 -1.8287084 0.8973887
-0.73921019 -1.82447 1.1083044
-0.67482513 -1.8216684 1.3217005
0.020255597 -1.4947078 1.1632457
0.87406182 -1.0797287 0.85751086
1.4593452 -0.79825521 0.67301273
1.9121794 -0.58215219 0.54389757
2.2649763 -0.4154928 0.45759958
2.6001587 -0.25545532 0.36150107
2.8331964 -0.14829054 0.32868859
3.104538 -0.018122926 0.24578802
3.3597267 0.10542309 0.15847535
3.5809374 0.21206935 0.086549081
3.7854338 0.31133911 0.014343038
3.9679585 0.39989421 -0.049673416
4.1291084 0.47764364 -0.10253168
4.2697563 0.54496956 -0.14430548
4.41222 0.61466026 -0.19906454
4.5390043 0.67621946 -0.24395481
-6.4649529 -4.121181 -1.4596862
-6.3922396 -4.1324863 -1.0996864
-6.2872167 -4.1282296 -0.74855232
-6.2007756 -4.1323504 -0.39711428
-6.090857 -4.1255102 -0.049194045
-6.0026131 -4.1283665 0.29854813
-5.8897715 -4.119298 0.63895082
-5.8035231 -4.1232181 0.98802191
-5.6988273 -4.1178064 1.3283646
-5.5968189 -4.1136131 1.6689693
-5.4762182 -4.1005425 2.0050657
-0.93889493 -1.8800626 0.47565505
-0.86883444 -1.8740684 0.68408895
-0.80111176 -1.8695298 0.89573848
-0.72737455 -1.8617711 1.1031196
-0.66722691 -1.8611071 1.3186451
0.061958969 -1.5123988 1.1396669
0.88132578 -1.1102809 0.85415024
1.4702003 -0.82347733 0.66698879
1.9265114 -0.60280824 0.53497744
2.2727168 -0.43764082 0.45309347
2.6052971 -0.27704817 0.35875425
2.8373928 -0.1690741 0.32655445
3.1063087 -0.038660888 0.24561983
3.3613343 0.086304016 0.15839028
3.5873737 0.19698879 0.081675388
3.786777 0.29457587 0.014392
3.9712329 0.38533205 -0.051765621
4.1309104 0.46317247 -0.10311829
4.2727609 0.53204465 -0.14641175
4.4169931 0.60366368 -0.20355909
4.5429883 0.66553211 -0.24770011
-6.4593215 -4.1973929 -1.4624074
-6.3921261 -4.211473 -1.1016681
-6.2926316 -4.2097993 -0.74946082
-6.1978402 -4.2100449 -0.39904791
-6.0906272 -4.2044516 -0.050379146
-5.9977388 -4.2051334 0.29654172
-5.8839726 -4.1955194 0.6368413
-5.8022027 -4.201695 0.98734134
-5.7046351 -4.1997581 1.3302549
-5.6069455 -4.1977205 1.6728779
-5.5028877 -4.1928635 2.0160387
-1.3782184 -2.1515126 0.66143209
-1.3365566 -2.1617544 0.89753538
-1.2885122 -2.1692944 1.1349645
-1.2810308 -2.1979096 1.3940827
-0.82740331 -1.9937215 1.4095099
0.066347517 -1.5541751 1.1384606
0.89321035 -1.142625 0.8480373
1.4799024 -0.85306549 0.66189241
1.9413503 -0.62662065 0.52589226
2.2863085 -0.45981592 0.44436625
2.6154127 -0.29890516 0.35224479
2.8592365 -0.18289027 0.30983555
3.1113758 -0.060044702 0.24274011
3.3654389 0.0660754 0.15617801
3.589144 0.17694202 0.081561267
3.7863197 0.2745654 0.016491592
3.9734085 0.36808673 -0.052473698
4.1336288 0.4473097 -0.10454305
4.2747016 0.51665473 -0.14704335
4.4169226 0.58803731 -0.20177153
4.5422497 0.65032417 -0.24501099
-6.4573607 -4.2666383 -1.464606
-6.3873901 -4.279563 -1.1039898
-6.2860322 -4.276998 -0.7519449
-6.1958246 -4.2794719 -0.40067631
-6.0904188 -4.2747059 -0.051455483
-5.9984093 -4.2758517 0.29592553
-5.8846192 -4.2661381 0.63649368
-5.7991571 -4.2706041 0.98618257
-5.7042198 -4.2699857 1.3301198
-5.6046839 -4.2670202 1.6723368
-5.500577 -4.2621174 2.0156767
-1.276045 -2.1453819 0.61888617
-1.224979 -2.1504846 0.84750509
-1.1763891 -2.1573613 1.0810412
-1.1691661 -2.1860213 1.3366244
-0.8195762 -2.0340335 1.4063741
0.061981272 -1.595742 1.1423306
0.90056521 -1.1730225 0.84464121
1.4908036 -0.87806952 0.65585339
1.9620349 -0.6435023 0.5124737
2.3057482 -0.475324 0.43109474
2.6229024 -0.31909734 0.34766436
2.8852422 -0.1912128 0.28945714
3.1154156 -0.079291068 0.240603
3.3671019 0.046974547 0.15607491
3.5906653 0.15907823 0.081528321
3.791188 0.25983053 0.012956316
3.9746852 0.3523604 -0.052373093
4.1361351 0.43327516 -0.10589897
4.2764482 0.50299311 -0.14761193
4.4172997 0.57438475 -0.20071784
4.5438075 0.63814521 -0.24551804
-6.4576387 -4.3413768 -1.4667364
-6.3866272 -4.3540287 -1.1059847
-6.2880087 -4.3527827 -0.75330639
-6.1977644 -4.3553023 -0.4017196
-6.0868053 -4.3477893 -0.053297583
-5.9938579 -4.3485079 0.29402411
-5.8836851 -4.3404856 0.63568538
-5.8026648 -4.347271 0.98693419
-5.7049575 -4.3452883 1.3303599
-5.6035604 -4.3413858 1.6722223
-5.5020223 -4.3377748 2.0168192
-1.1857934 -2.1470921 0.58139086
-1.1217421 -2.1451275 0.80130577
-1.0733304 -2.151758 1.0316049
-0.9964214 -2.1432719 1.247323
-0.78555232 -2.0630302 1.3886859
0.06459105 -1.6361357 1.1421474
0.92686135 -1.1951888 0.82934815
1.4963812 -0.90784854 0.65348595
1.9625221 -0.67317218 0.51352751
2.3083243 -0.5017103 0.43058634
2.6450968 -0.33242255 0.33149755
2.9151673 -0.19841656 0.26588863
3.1189086 -0.10019281 0.23905793
3.3703895 0.02755535 0.15456671
3.5937674 0.14095972 0.080056474
3.7927387 0.24206671 0.012937878
3.9761126 0.33567899 -0.052327383
4.1354656 0.41632998 -0.10352649
4.27703 0.48768517 -0.14667287
4.4197016 0.56110519 -0.20208776
4.5430183 0.6236558 -0.24281232
-6.4521451 -4.4134688 -1.4694124
-6.3857746 -4.4285221 -1.1080148
-6.2843404 -4.4259295 -0.75550246
-6.192234 -4.4275761 -0.4040778
-6.0904222 -4.4245386 -0.053681109
-5.995584 -4.4243655 0.29358348
-5.8807864 -4.413969 0.63435185
-5.7970238 -4.4194541 0.98498708
-5.7020082 -4.4188266 1.3293999
-5.6023464 -4.4157972 1.6720779
-5.5007439 -4.4121413 2.0169075
-1.1190858 -2.1600714 0.55381525
-1.0694109 -2.165447 0.77824724
-1.0342649 -2.1790268 1.0134522
-0.95433557 -2.168685 1.2264407
-0.77312833 -2.1033876 1.3830818
0.091853611 -1.6630316 1.1272721
0.91836345 -1.2362918 0.83610541
1.5123515 -0.93179733 0.64413452
1.9716707 -0.69798493 0.50842506
2.3132699 -0.52676892 0.42831045
2.6505225 -0.35508886 0.32866326
2.9443247 -0.20567475 0.24294786
3.1231699 -0.12062158 0.23684879
3.3751512 0.0090184323 0.15170841
3.5933645 0.12075833 0.082042389
3.7936239 0.22388457 0.013628002
3.9795942 0.32024369 -0.05448705
4.1381335 0.40141317 -0.10493492
4.2763448 0.47155863 -0.14419308
4.4221177 0.54784375 -0.20346232
4.5477848 0.61269552 -0.24742468
-6.4521475 -4.4882712 -1.4716327
-6.3866329 -4.5039797 -1.1098783
-6.2786994 -4.4981585 -0.75800484
-6.1911645 -4.5021334 -0.4056803
-6.0875287 -4.4981489 -0.055403069
-5.9935389 -4.4984403 0.29224572
-5.879622 -4.4883895 0.63346857
-5.7976065 -4.4948745 0.98487014
-5.7015929 -4.4937744 1.3292649
-5.6027303 -4.4911728 1.672509
-5.5010967 -4.4874711 2.0176404
-0.94295913 -2.1141205 0.48008102
-0.90014583 -2.1224885 0.70197463
-0.90070331 -2.1548326 0.94906414
-0.79868758 -2.1317387 1.146041
-0.72076803 -2.121706 1.3551461
0.11506066 -1.691892 1.114827
0.94389164 -1.2585306 0.82130843
1.5243821 -0.95781994 0.63745189
1.9863713 -0.71957803 0.49938506
2.3275454 -0.54644263 0.41903654
2.6651208 -0.37240681 0.31854603
2.9472749 -0.22791363 0.24198769
3.1289263 -0.14015907 0.23333059
3.3763335 -0.011637717 0.15219991
3.5965261 0.10266706 0.08055108
3.7959192 0.20654827 0.012880937
3.9810739 0.30358961 -0.054452471
4.1408257 0.38650534 -0.10634534
4.2814984 0.4590885 -0.14869137
4.4214058 0.53259039 -0.20087779
4.5464249 0.59779692 -0.24392101
-6.4487104 -4.5658751 -1.4743059
-6.3840718 -4.5822477 -1.1122663
-6.2816353 -4.579155 -0.75939012
-6.1903625 -4.5813289 -0.4073399
-6.0885086 -4.5782452 -0.056422573
-5.9935398 -4.5780816 0.29132158
-5.8768768 -4.5665212 0.63212508
-5.7956877 -4.5735521 0.98399466
-5.6978593 -4.5715055 1.3280495
-5.5989475 -4.5688677 1.6714729
-5.4981275 -4.5655842 2.0171182
-0.8396095 -2.1078355 0.43706217
-0.81235653 -2.1243348 0.66280788
-0.86640573 -2.1860123 0.93330359
-0.70596033 -2.130229 1.0986527
-0.68720347 -2.152595 1.3377994
0.1418719 -1.7209343 1.1003207
0.95921296 -1.2884007 0.81307453
1.5279081 -0.99051863 0.63658047
2.0029013 -0.7417258 0.48913726
2.3358531 -0.57107365 0.41434598
2.6761189 -0.39319947 0.31138921
2.9616482 -0.24478596 0.23154156
3.1444314 -0.15515776 0.22130975
3.3798609 -0.032157462 0.15061365
3.6005619 0.083948299 0.078307278
3.8018403 0.19033986 0.0085109184
3.9806695 0.28470704 -0.052268092
4.1430011 0.37030604 -0.10705341
4.282907 0.44334406 -0.14858571
4.4246054 0.51894695 -0.20309567
4.5494881 0.58492661 -0.24614245
-6.4456429 -4.6393681 -1.4768648
-6.3773036 -4.6540575 -1.1150516
-6.2739296 -4.6504736 -0.76223421
-6.1890626 -4.6559677 -0.40901735
-6.0825815 -4.6505008 -0.058795899
-5.9903665 -4.6517563 0.28970653
-5.8781953 -4.6424332 0.63188791
-5.7933002 -4.6476541 0.98299485
-5.6989651 -4.6474814 1.3284096
-5.5964494 -4.6429152 1.6708831
-5.493803 -4.6386495 2.0160468
-0.75143653 -2.1058252 0.40041146
-0.71207941 -2.1155121 0.61790198
-0.8290692 -2.2123439 0.91598976
-0.63709176 -2.1381693 1.0637115
-0.70951933 -2.211853 1.3516769
0.14384718 -1.7613554 1.1005721
0.9702844 -1.3184437 0.80747837
1.5408375 -1.0158865 0.6293292
1.9980209 -0.77443391 0.49406883
2.3424447 -0.59502244 0.41087422
2.6899958 -0.41065407 0.30186701
2.9698863 -0.26377761 0.22617145
3.1539061 -0.17228466 0.21452866
3.3818281 -0.052358866 0.15041162
3.6009562 0.064165324 0.079571486
3.8028085 0.17218505 0.0091741327
3.9835508 0.26889881 -0.053721972
4.1450753 0.35502544 -0.10772852
4.2855177 0.42929131 -0.14999957
4.4264588 0.50532162 -0.2036988
4.5506277 0.57161969 -0.24590112
-6.4443913 -4.7138066 -1.4792711
-6.3787179 -4.7300968 -1.1169319
-6.2744346 -4.7260222 -0.76390648
-6.1904011 -4.7320619 -0.41025028
-6.0811276 -4.725122 -0.060277425
-5.989747 -4.7268772 0.28866476
-5.8766623 -4.7169809 0.63088477
-5.7943983 -4.7236938 0.98301798
-5.6946325 -4.7206469 1.3269994
-5.5965109 -4.7184272 1.6712092
-5.4946489 -4.7145886 2.0169942
-0.65552461 -2.0984941 0.36048561
-0.61876953 -2.1093361 0.57615817
-0.64827484 -2.1578977 0.828426
-0.53560644 -2.1268177 1.0116301
-0.65127909 -2.2255964 1.3204591
0.17042762 -1.7876781 1.0861409
0.98379427 -1.3469765 0.80033225
1.5442255 -1.0467025 0.62850255
1.996341 -0.80536807 0.49674636
2.3506155 -0.61797976 0.40623412
2.7016108 -0.42931828 0.29415518
2.9818799 -0.28041357 0.2176581
3.1956575 -0.16951975 0.17917603
3.3859832 -0.071223237 0.14818282
3.6063142 0.047456622 0.075972833
3.8058722 0.15533994 0.0076909168
3.9905109 0.25570115 -0.059582647
4.1478348 0.34018138 -0.10916679
4.2868619 0.4144108 -0.14987296
4.4308438 0.49336997 -0.207479
4.5530095 0.55914044 -0.24728861
-6.4368138 -4.7895641 -1.4824035
-6.3767118 -4.8089194 -1.1193314
-6.2778716 -4.8076825 -0.76529056
-6.1846309 -4.8090014 -0.41283059
-6.0799298 -4.804399 -0.061777573
-5.9866405 -4.8052177 0.28698739
-5.8735018 -4.7952127 0.62940592
-5.7876501 -4.8000698 0.98071009
-5.6922817 -4.7994146 1.3262342
-5.5923133 -4.7962041 1.6700381
-5.4878173 -4.7908649 2.014993
-0.55933625 -2.0924728 0.32046977
-0.52862144 -2.1064346 0.53588754
-0.54287881 -2.1465192 0.77780867
-0.45144889 -2.1267631 0.96870571
-0.57621819 -2.2316177 1.2798771
0.21040924 -1.8083344 1.0637947
0.9911679 -1.3811306 0.7971881
1.5502641 -1.0778731 0.62598491
2.0051041 -0.83190006 0.49206954
2.359024 -0.6423744 0.40151051
2.7088847 -0.452021 0.2899991
2.990339 -0.30050579 0.21221602
3.2170336 -0.18016155 0.16195522
3.38673 -0.093462005 0.14924833
3.6097341 0.028383091 0.074397668
3.811177 0.13883129 0.0040075444
3.9922163 0.23813748 -0.059621539
4.1500797 0.32402751 -0.10989747
4.2896342 0.39953941 -0.15133932
4.4278212 0.47560614 -0.20178938
4.5536847 0.54467839 -0.24628389
-6.4275489 -4.8555894 -1.4854189
-6.3784952 -4.8809299 -1.1210918
-6.2750301 -4.8772826 -0.7673859
-6.1853814 -4.8805752 -0.41411677
-6.0788002 -4.8749628 -0.063153796
-5.9863901 -4.8762817 0.28606555
-5.8705115 -4.8647213 0.62804252
-5.7899528 -4.8725619 0.98109752
-5.6936646 -4.8714156 1.3266844
-5.5918288 -4.8671865 1.6701595
-5.4907565 -4.8637481 2.0167298
-0.47257286 -2.0853691 0.28435591
-0.44095141 -2.0985851 0.49665156
-0.42126319 -2.1192687 0.7191214
