# .PCD v0.7 - Point Cloud Data file format
VERSION 0.7
FIELDS x y z
SIZE 4 4 4
TYPE F F F
COUNT 1 1 1
WIDTH 1541
HEIGHT 1
VIEWPOINT 0 0 0 1 0 0 0
POINTS 1541
DATA ascii
-123.98869 34.001556 40.034775
-102.81859 28.831461 31.540543
-89.436348 25.531467 25.620119
-21.262203 9.8329649 14.705263
-21.570509 9.8328276 13.52396
-21.969376 9.8518734 12.32836
-22.392345 9.875845 11.125927
-22.829708 9.9018927 9.9043207
-23.085386 9.886611 8.6624441
-23.386002 9.8809547 7.4153757
-23.88579 9.9171295 6.1302786
-24.047817 9.8794031 4.8579631
-24.66036 9.9365625 3.5047688
-23.29854 9.5794659 2.5344107
-21.894594 9.2181053 1.6509048
-19.936304 8.7486515 1.0170696
-18.369062 8.3656673 0.38380083
-16.581617 7.943429 -0.086350292
-15.438965 7.6566072 -0.67943656
-14.275362 7.369534 -1.1964639
-12.88644 7.0419297 -1.5532707
-191.48199 50.917553 68.731804
-132.21867 36.455338 46.860474
-123.83066 34.187675 39.972542
-102.71558 28.994774 31.490126
-89.277153 25.65897 25.562305
-21.138966 9.8613615 14.677382
-21.500751 9.8734503 13.501884
-21.748461 9.8586245 12.299829
-22.138149 9.875617 11.101961
-22.531202 9.8923817 9.8871841
-22.982533 9.9203453 8.6419563
-23.261282 9.9099674 7.3979549
-26.352615 10.505325 5.8067908
-29.2328 11.043707 4.0437407
-25.257956 10.11933 3.3605855
-23.41711 9.6579971 2.4731076
-21.709629 9.2306728 1.6601158
-19.886646 8.7862406 0.99488306
-18.344431 8.4058113 0.35555112
-16.462433 7.9615617 -0.081008472
-15.376662 7.6843886 -0.6916461
-14.215482 7.3959241 -1.2075865
-12.850968 7.0710111 -1.5726458
-191.44052 51.229122 68.70607
-132.07649 36.6483 46.805805
-123.69671 34.367638 39.916725
-102.54969 29.13345 31.430191
-89.202194 25.797192 25.518211
-21.030231 9.889781 14.65186
-21.423834 9.9093056 13.480176
-21.779339 9.9187946 12.282995
-21.736742 9.8386669 11.077905
-21.748968 9.7714033 9.8828125
-40.22036 13.778769 7.6593804
-28.339615 11.074498 6.9263563
-31.532795 11.68612 5.156826
-29.102657 11.07564 4.0281172
-25.069538 10.133107 3.3610337
-23.319851 9.6883783 2.459744
-21.517382 9.2385187 1.6731732
-19.785437 8.8104639 0.98881561
-18.159138 8.4104414 0.37887993
-16.541937 8.0176716 -0.14189248
-15.371296 7.721384 -0.72338319
-14.179811 7.4250054 -1.2267046
-12.720869 7.0793366 -1.5485485
-191.33102 51.544342 68.660286
-131.79132 36.820736 46.714756
-123.60887 34.571323 39.86887
-102.42278 29.291744 31.37517
-89.0718 25.931765 25.463919
-20.959986 9.9301758 14.629628
-21.32135 9.9424019 13.455491
-21.020844 9.8024693 12.232288
-49.356567 16.138214 11.294602
-21.560646 9.7844954 9.8637171
-40.258507 13.869343 7.6188045
-29.325609 11.355527 6.806747
-25.758833 10.492484 5.8139663
-26.65505 10.60906 4.3634405
-25.521194 10.287135 3.2416868
-23.360468 9.7510118 2.4145155
-21.736305 9.3355703 1.5823526
-19.789669 8.8592978 0.95116776
-18.210152 8.4661865 0.32671669
-16.67206 8.086875 -0.22262768
-15.384295 7.7644706 -0.76424921
-14.087185 7.4447351 -1.2247028
-12.674345 7.1061144 -1.563273
-191.25209 51.849072 68.62381
-132.1841 37.143482 46.79073
-123.38799 34.731213 39.794491
-102.2235 29.422895 31.309143
-88.867699 26.040106 25.401161
-20.117403 9.7871189 14.525297
-60.609894 19.087519 16.34655
-20.558237 9.748868 12.195333
-21.094507 9.8014431 11.030757
-44.373848 14.982486 9.2846937
-21.780993 9.814991 8.6339874
-36.567909 13.023155 6.1303234
-27.439196 10.918121 5.5795217
-23.947416 10.075834 4.7442975
-24.885038 10.204408 3.3245318
-23.229856 9.7742548 2.4080117
-21.663475 9.3686209 1.5654553
-19.753302 8.897069 0.92663443
-18.090004 8.4840231 0.32967544
-16.685144 8.1300058 -0.26154831
-15.29163 7.7838349 -0.76361763
-14.061881 7.4758921 -1.2483687
-12.68384 7.1421065 -1.6010935
-191.62163 52.264648 68.712944
-132.96605 37.562939 46.96151
-123.12396 34.88084 39.71093
-102.24332 29.60605 31.281301
-88.715225 26.160538 25.345476
-19.913952 9.7918863 14.489821
-60.470257 19.166643 16.302357
-54.499439 17.637556 13.544147
-48.99506 16.241035 11.219978
-21.278376 9.8249359 9.8259134
-39.802528 13.92267 7.5716424
-29.256067 11.463847 6.749505
-33.087872 12.226372 4.858922
-25.532125 10.476678 4.4683948
-23.674038 9.9951582 3.5150602
-22.914251 9.7574444 2.441869
-21.579586 9.3992529 1.5512092
-19.738354 8.9394026 0.89593917
-18.132425 8.5357771 0.28158343
-16.578674 8.1484356 -0.25937358
-15.15571 7.7941904 -0.74655306
-13.982425 7.4960322 -1.2500273
-12.682262 7.1760006 -1.6341897
-191.38219 52.532196 68.631233
-132.43245 37.663754 46.810528
-122.89062 35.037766 39.633724
-102.0934 29.749521 31.223465
-88.61438 26.293285 25.29686
-73.932899 22.612499 20.229158
-60.26651 19.230644 16.253374
-54.542591 17.749413 13.510427
-48.867477 16.304399 11.182955
-44.213608 15.115872 9.2155237
-21.411665 9.8357019 8.6061811
-28.46298 11.347932 6.789156
-25.945637 10.703353 5.697001
-23.485884 10.080852 4.7517028
-25.919952 10.538946 3.0618165
-22.49061 9.7165251 2.4995356
-21.614853 9.4554319 1.5070032
-19.657907 8.9679136 0.88342065
-18.087744 8.5693741 0.2605716
-16.450577 8.1622124 -0.2497405
-15.116792 7.8244123 -0.76638091
-13.999626 7.5359249 -1.2915617
-12.626818 7.1990604 -1.6435869
-191.19138 52.812744 68.563057
-132.03169 37.79673 46.691841
-122.58282 35.176899 39.540783
-101.869 29.875196 31.152445
-88.648628 26.459106 25.266874
-73.702232 22.691212 20.169498
-20.308933 9.9189997 13.3164
-20.127014 9.8047276 12.12397
-20.286133 9.7713575 10.964264
-44.148743 15.186169 9.180294
-39.76701 14.070335 7.4996834
-36.390224 13.200084 6.0344605
-27.452791 11.097992 5.479084
-24.035582 10.255956 4.6341443
-25.404039 10.481171 3.1226377
-22.447372 9.7576265 2.474268
-21.606201 9.5023499 1.4734267
-19.707197 9.0241375 0.83406812
-18.172434 8.6304789 0.19853328
-16.462727 8.2052755 -0.28887886
-15.066916 7.852376 -0.78216636
-14.016339 7.5758638 -1.3332486
-12.539124 7.2154832 -1.6387454
-277.62976 76.059578 114.24891
-190.83513 53.052238 68.448448
-131.84628 37.98262 46.625732
-122.54301 35.381493 39.503658
-101.79998 30.038507 31.108313
-88.419228 26.561747 25.199865
-19.273333 9.7964478 14.380468
-59.804035 19.345167 16.151028
-54.209541 17.876001 13.425714
-48.685818 16.448164 11.108844
-20.479244 9.7970181 9.7793636
-21.075165 9.8625479 8.5765409
-36.232857 13.236942 6.0111017
-32.994087 12.406175 4.7578154
-26.096954 10.770433 4.2788482
-23.677277 10.154022 3.4123034
-22.05739 9.7226839 2.5251694
-21.391535 9.5046072 1.491693
-19.626123 9.0525579 0.82143021
-18.094561 8.6571884 0.18755016
-16.474407 8.2484074 -0.32824394
-14.973884 7.8712387 -0.78164899
-13.925603 7.5936317 -1.3306487
-12.462102 7.2339807 -1.638594
-276.47229 76.270569 113.86293
-190.70671 53.368828 68.396683
-132.20674 38.318367 46.691479
-122.34089 35.559402 39.43082
-101.55022 30.16852 31.030787
-88.365593 26.716162 25.155006
-18.866987 9.7536354 14.323026
-19.811794 9.909215 13.247136
-54.167793 17.974649 13.385898
-48.645763 16.537575 11.069642
-43.925022 15.310249 9.1094885
-39.701233 14.216495 7.4262948
-20.80776 9.7841988 7.4009657
-25.937647 10.876699 5.5993195
-25.263676 10.643456 4.3732071
-25.073847 10.52152 3.1110523
-22.010189 9.7654963 2.4986477
-21.378477 9.5534639 1.4568019
-19.509018 9.0757771 0.81680465
-17.980873 8.6786976 0.18576312
-16.385799 8.2727213 -0.33479518
-14.909934 7.898427 -0.79437935
-13.853343 7.6173072 -1.3378584
-12.542023 7.2868743 -1.7111689
-138.87772 41.272121 65.223419
-218.25342 61.203003 84.618103
-190.64023 53.682446 68.363037
-132.53908 38.635868 46.751198
-122.02945 35.697853 39.336647
-101.49901 30.337078 30.98933
-88.123543 26.815838 25.085833
-73.017387 22.935997 19.988388
-19.639744 9.9203453 13.218585
-19.362976 9.7821922 12.038913
-48.473347 16.590422 11.031613
-43.879757 15.38536 9.0730324
-20.73513 9.89042 8.5457811
-36.019634 13.337667 5.9524064
-24.518171 10.610383 5.7450404
-23.769035 10.361356 4.5753522
-25.552406 10.684033 2.9837627
-21.966478 9.8061638 2.4731491
-21.293308 9.583663 1.4421499
-19.4492 9.1086445 0.79787302
-18.010189 8.7284431 0.14031421
-16.182089 8.2698936 -0.29884222
-14.891534 7.93296 -0.82273281
-13.879813 7.6595039 -1.3842881
-12.517668 7.3163667 -1.7351764
-139.80678 41.767532 65.563812
-190.72269 54.035305 68.370956
-132.25449 38.799412 46.660412
-121.86079 35.871658 39.272163
-101.31142 30.472334 30.923971
-87.922935 26.925549 25.022341
-18.610352 9.7945089 14.268497
-19.235809 9.8750467 13.173643
-19.011599 9.7493467 12.0076
-48.332516 16.650639 10.993752
-19.701723 9.7719049 9.7322226
-39.34956 14.292015 7.3716397
-35.990288 13.403722 5.9166751
-32.782578 12.564217 4.6670666
-28.334805 11.454906 3.8157821
-23.294878 10.23066 3.3786829
-21.685528 9.7938471 2.5004766
-21.207893 9.6137486 1.4274205
-19.442827 9.1532593 0.76341957
-17.942371 8.7572737 0.12572093
-16.289345 8.3336897 -0.3724325
-14.87287 7.9675155 -0.85108972
-13.863169 7.6927824 -1.4130437
-12.429365 7.3324924 -1.7305261
-139.83578 42.047169 65.586716
-190.75616 54.396824 68.36412
-132.08321 39.0056 46.595818
-121.7571 36.074883 39.219296
-101.1717 30.630173 30.864969
-87.761147 27.05419 24.96187
-18.206022 9.7498722 14.211692
-59.270573 19.679113 15.96925
-18.805159 9.7536125 11.980772
-48.300907 16.74242 10.95379
-19.345009 9.7412271 9.7187939
-39.445198 14.397894 7.3250513
-35.901165 13.460333 5.8840742
-26.149368 11.102645 5.4711471
-29.206917 11.719033 3.6365607
-24.736525 10.614284 3.0643733
-21.583881 9.8242292 2.4857242
-21.129274 9.6481667 1.4086912
-19.357382 9.1832304 0.74932003
-17.956675 8.8065863 0.082393527
-16.296394 8.3785772 -0.41326526
-14.754808 7.9830484 -0.84347486
-13.800789 7.7185559 -1.4249555
-12.497177 7.3834705 -1.7987046
-139.66205 42.24424 65.536552
-190.55238 54.659355 68.29258
-132.48492 39.331085 46.673019
-121.48853 36.21151 39.135414
-101.03677 30.768166 30.81036
-87.601501 27.164814 24.905832
-72.076454 23.107952 19.781752
-59.155968 19.757349 15.927787
-18.63826 9.7610712 11.957512
-48.049549 16.770521 10.917459
-19.188032 9.7514229 9.7022686
-20.013012 9.8752069 8.5155354
-35.822773 13.510855 5.8548698
-32.500034 12.634195 4.6252618
-24.040247 10.586982 4.4310141
-23.789299 10.449968 3.2127118
-21.768673 9.913434 2.4105456
-21.090172 9.6856194 1.3840121
-19.364542 9.2283001 0.71259886
-17.859646 8.8264303 0.079007596
-16.330677 8.4247427 -0.4597787
-14.80252 8.0296926 -0.89588475
-13.690965 7.7298007 -1.4127374
-12.442952 7.4047513 -1.8077174
-139.57533 42.464802 65.517265
-190.42735 54.942871 68.242996
-133.27898 39.759663 46.845474
-121.32083 36.373909 39.072273
-100.83869 30.890421 30.744715
-87.431061 27.272701 24.848133
-17.937096 9.7796373 14.157707
-58.767776 19.768318 15.867086
-53.622486 18.353346 13.183754
-47.99913 16.846863 10.881529
-18.978142 9.7486401 9.6873713
-39.305767 14.514037 7.2606292
-19.521612 9.7347717 7.3903475
-32.470539 12.691103 4.5921187
-28.679939 11.714152 3.6488216
-24.7505 10.721714 2.9922593
-21.32062 9.8591948 2.477984
-20.975769 9.7061701 1.378644
-19.232199 9.2423277 0.71625406
-17.741066 8.8413925 0.082544439
-16.268572 8.4499464 -0.47224334
-14.754042 8.0556717 -0.91122758
-13.676517 7.7614141 -1.4407983
-12.409736 7.4304571 -1.8263788
-139.8129 42.787777 65.613594
-189.94266 55.152939 68.09182
-132.83379 39.88443 46.714962
-121.29953 36.586716 39.037647
-100.87302 31.082699 30.716991
-87.298836 27.399746 24.793264
-71.431061 23.207857 19.644203
-58.602493 19.840235 15.819968
-18.290554 9.7746191 11.909624
-48.004105 16.942455 10.843318
-43.352802 15.685935 8.8989077
-39.340786 14.601942 7.2191429
-35.744255 13.634867 5.7859998
-19.850508 9.7902431 6.1906581
-23.92186 10.666561 4.3833194
-23.523388 10.493807 3.1941459
-21.927917 10.0486 2.3040342
-20.825403 9.7212696 1.3802698
-19.203066 9.2820835 0.68753833
-17.661787 8.8675089 0.071115091
-16.128616 8.4603701 -0.45917436
-14.596164 8.0600052 -0.88617319
-13.680057 7.7991629 -1.4788253
-12.40511 7.4643965 -1.8604399
-139.8797 43.097744 65.651047
-190.47914 55.671387 68.224159
-131.86591 39.901081 46.454819
-121.06995 36.77261 38.956123
-100.57986 31.213396 30.628687
-87.079155 27.523827 24.721901
-71.020386 23.254705 19.560888
-17.854185 9.7953072 12.995422
-53.307533 18.49597 13.092942
-18.205387 9.7387409 10.770873
-18.53335 9.7475224 9.6534986
-18.930094 9.7713804 8.5086775
-35.573109 13.676424 5.7582784
-32.410252 12.821091 4.5159154
-25.172913 11.022107 4.1398749
-22.654707 10.352209 3.3236408
-21.895056 10.098369 2.2703843
-20.699474 9.7474995 1.371254
-19.123695 9.3160009 0.66889095
-17.586103 8.8995104 0.054032627
-16.024738 8.483407 -0.46336827
-14.517107 8.0859394 -0.89617431
-13.635057 7.8308215 -1.5008976
-12.373619 7.4967394 -1.8867038
-139.96252 43.382404 65.692841
-190.43936 56.000748 68.197098
-131.85342 40.138062 46.429298
-100.48734 31.374426 30.57855
-87.006927 27.666611 24.674915
-70.816933 23.337456 19.503208
-17.496964 9.7564859 12.954902
-17.816826 9.7644005 11.854368
-47.618332 17.048243 10.761011
-42.956085 15.772951 8.828639
-39.131092 14.720617 7.1487007
-35.360069 13.699028 5.7392688
-32.246284 12.850447 4.4973378
-28.980062 11.978598 3.4777603
-23.372471 10.573364 3.146383
-20.985962 9.9389343 2.4418156
-20.719431 9.8013058 1.3282751
-19.178955 9.3750992 0.61487544
-17.602074 8.9469757 0.011150415
-15.980191 8.5147238 -0.48465726
-14.433449 8.1062164 -0.90020084
-13.511329 7.8408804 -1.4852493
-12.336805 7.5238366 -1.9065036
-138.03117 43.137665 65.021881
-190.47057 56.37048 68.188797
-131.72025 40.35817 46.373009
-100.3688 31.539791 30.521782
-86.745987 27.770847 24.59976
-70.653984 23.438454 19.447163
-58.314953 20.128653 15.684943
-53.060886 18.649359 13.006015
-47.456341 17.108503 10.719729
-42.920525 15.856181 8.7879038
-38.967468 14.765595 7.1172104
-35.3848 13.783125 5.6942058
-32.034538 12.872115 4.4827323
-22.788221 10.573615 4.4593172
-23.838348 10.740644 3.0150795
-21.351015 10.077521 2.3191085
-20.405638 9.7810287 1.3706144
-19.006903 9.3851347 0.62545478
-17.486738 8.9674349 0.0088433819
-15.953309 8.5524731 -0.51465714
-14.36767 8.1326742 -0.91350824
-13.489928 7.8754811 -1.5155106
-12.317956 7.5569777 -1.9369175
-139.46265 43.790226 65.541687
-190.36377 56.684788 68.142769
-133.59224 41.097862 46.803925
-100.22203 31.687365 30.461988
-86.588463 27.892189 24.540638
-70.480202 23.528687 19.392164
-17.040728 9.7447166 12.89081
-17.536213 9.7977018 11.806943
-17.57625 9.7358675 10.707978
-17.839506 9.7297087 9.6070347
-18.181442 9.7416372 8.4821777
-35.28754 13.833555 5.6634245
-31.944534 12.918804 4.454248
-28.279188 11.940918 3.511682
-21.962551 10.35132 3.3504949
-20.752892 9.9881105 2.4203823
-20.032663 9.7434168 1.4312131
-19.071777 9.446764 0.5680114
-17.385483 8.9883509 0.0041997782
-15.844826 8.569397 -0.51311743
-14.389131 8.1763306 -0.95920712
-13.439622 7.9015746 -1.5314317
-12.228373 7.5725336 -1.9326725
-136.88033 43.330399 64.638367
-190.04079 56.921543 68.037209
-132.63461 41.073227 46.549984
-100.12914 31.838358 30.413254
-86.401711 27.996428 24.479694
-70.13028 23.565567 19.321445
-16.824081 9.7365742 12.861104
-52.848602 18.799236 12.924048
-47.393463 17.277517 10.643344
-42.69936 15.970545 8.7179079
-38.805164 14.881625 7.0496254
-35.206223 13.883484 5.6332946
-18.677959 9.7643776 6.19554
-29.089922 12.194622 3.3386815
-23.325718 10.72582 3.0441821
-21.325066 10.170696 2.252732
-19.209202 9.5966415 1.614007
-18.758856 9.4183445 0.624928
-17.424871 9.0388727 -0.044931419
-15.887186 8.6180477 -0.56426483
-14.549889 8.2492962 -1.0583692
-13.329188 7.9120212 -1.5194062
-12.245975 7.6096206 -1.975996
-139.39464 44.27195 65.541679
-132.0489 41.146675 46.386185
-99.88208 31.948982 30.338017
-86.265381 28.113894 24.425364
-69.791267 23.604593 19.251942
-58.011475 20.380854 15.557817
-17.111393 9.7844496 11.758299
-17.119843 9.7145863 10.669788
-42.486797 15.99958 8.6874657
-38.72644 14.93794 7.0166397
-35.02972 13.910034 5.6126666
-31.97443 13.055247 4.3732691
-24.818853 11.221867 4.0175924
-22.506866 10.581211 3.1729894
-20.710951 10.073211 2.3606107
-19.149017 9.6275015 1.5949594
-18.626043 9.4312763 0.62835294
-17.358335 9.0651484 -0.059118874
-15.876433 8.6547928 -0.59635055
-14.573298 8.2916298 -1.1034489
-13.333948 7.9481506 -1.5570472
-12.20067 7.6328402 -1.9903344
-137.13889 43.927307 64.755432
-140.37016 44.431385 59.969032
-189.67409 57.51252 67.901863
-131.83521 41.348759 46.309605
-99.77829 32.11982 30.282961
-86.051796 28.230217 24.35593
-69.400024 23.645514 19.172617
-16.425488 9.7337456 12.802304
-52.584064 18.942226 12.837369
-46.997223 17.368412 10.564438
-42.31295 16.048368 8.6508989
-38.603275 14.992704 6.9816546
-34.94672 13.968219 5.5776095
-31.867071 13.101983 4.3440056
-26.950062 11.801761 3.6179266
-25.077696 11.258247 2.6149344
-22.664507 10.593779 1.8629339
-19.270864 9.7070599 1.5226303
-18.401623 9.427969 0.65487754
-17.24239 9.0851288 -0.061619155
-15.785081 8.67799 -0.60377043
-14.401226 8.2942533 -1.0753781
-13.300962 7.9803114 -1.5831444
-12.18066 7.6659131 -2.0211155
-137.47113 44.285179 64.886169
-221.01991 67.070366 85.49366
-131.57896 41.525074 46.224033
-99.596306 32.258957 30.216417
-85.911041 28.356579 24.298359
-69.24501 23.739759 19.119081
-57.589943 20.508125 15.452931
-16.759178 9.7969494 11.708984
-46.912983 17.442677 10.524516
-42.260242 16.122543 8.6120872
-38.569618 15.065167 6.9427218
-34.868961 14.023394 5.5442133
-31.712231 13.132889 4.3236036
-20.69578 10.331863 4.6410809
-26.189878 11.585852 2.3493497
-20.402689 10.103683 2.3560457
-19.395441 9.7850199 1.4512447
-18.496775 9.4968977 0.58744091
-17.277067 9.1375437 -0.1121617
-15.749407 8.7115192 -0.62944216
-14.368512 8.3261623 -1.100751
-13.270719 8.0108976 -1.6083755
-12.100851 7.6834989 -2.0219259
-136.55975 44.310493 64.576599
-189.44621 58.166451 67.80378
-133.4196 42.291225 46.643589
-99.468643 32.42432 30.156757
-85.695625 28.472677 24.228344
-68.976669 23.81204 19.051973
-57.491875 20.604517 15.406315
-52.350456 19.09947 12.748575
-46.654877 17.477894 10.482694
-16.866936 9.7318983 9.5276432
-17.102077 9.7186241 8.4319439
-17.748539 9.808445 7.2916155
-31.730011 13.210553 4.2768197
-25.795488 11.643536 3.7333169
-23.153873 10.907766 2.9242032
-21.665094 10.462695 2.0174456
-19.126572 9.7720194 1.4831159
-18.335386 9.5080967 0.59484696
-17.034979 9.1277361 -0.072614908
-15.783295 8.7637739 -0.68327105
-14.259256 8.3427896 -1.0977798
-13.226756 8.0406408 -1.6301199
-12.059587 7.7118044 -2.0431364
-133.33221 43.661354 63.444225
-189.42943 58.511776 67.782158
-135.81403 43.202896 47.197426
-99.313934 32.571438 30.094454
-85.552414 28.598581 24.170078
-68.728394 23.881451 18.988974
-57.309509 20.672077 15.356349
-16.459148 9.8216515 11.661325
-46.579983 17.554531 10.442373
-42.21843 16.292971 8.5288687
-38.389633 15.186876 6.8695383
-34.633091 14.118028 5.4827442
-17.612833 9.7498035 6.191596
-25.778084 11.699189 3.6971295
-25.333405 11.498425 2.4390054
-22.601046 10.743085 1.7556872
-18.589314 9.6909103 1.5902296
-18.45023 9.5822487 0.52077949
-17.184038 9.2073383 -0.1621363
-15.778158 8.8046474 -0.72068805
-14.111484 8.3480129 -1.0770378
-13.123152 8.0544634 -1.6237618
-12.031327 7.7409773 -2.0683775
-134.44493 44.644875 69.769516
-133.17084 43.877129 63.399834
-189.55545 58.898621 67.800156
-135.57175 43.391983 47.114037
-99.037254 32.685482 30.011282
-85.337769 28.705326 24.102148
-68.113213 23.852459 18.88991
-57.412952 20.815386 15.324373
-51.937485 19.203548 12.656384
-16.083237 9.700057 10.567655
-16.363731 9.7004681 9.501009
-38.187717 15.216733 6.8420663
-17.408649 9.8210812 7.2721667
-31.596411 13.316204 4.2108088
-25.58242 11.710593 3.6914496
-21.519142 10.61499 3.182837
-20.465971 10.274636 2.2249143
-18.775808 9.7839489 1.5014516
-18.480536 9.6365576 0.47180954
-16.945589 9.1952963 -0.12135798
-15.668412 8.821002 -0.71962982
-14.026242 8.3675613 -1.0815654
-13.081811 8.0825405 -1.6446743
-11.816721 7.7275658 -2.0059118
-134.51598 44.541553 63.891201
-141.04762 46.003147 60.183437
-189.28851 59.197643 67.70752
-134.93358 43.485729 46.933716
-98.905319 32.850616 29.950272
-85.149315 28.82918 24.035072
-67.752853 23.898579 18.813652
-15.406168 9.7188511 12.653263
-16.118441 9.8345156 11.612698
-46.286648 17.67631 10.359524
-41.976658 16.412603 8.4523506
-38.207447 15.30822 6.7956619
-34.406208 14.214715 5.4197273
-17.186714 9.742527 6.1900768
-28.647072 12.542959 3.1166351
-23.447439 11.150931 2.7438784
-20.653679 10.375177 2.1390758
-18.403627 9.7442379 1.5623015
-18.308115 9.644928 0.48227471
-17.037561 9.2644987 -0.19483283
-15.638422 8.8585911 -0.75061339
-14.124574 8.4324522 -1.162935
-13.047544 8.1144733 -1.6711791
-11.898835 7.7841091 -2.0858614
-132.08363 44.104763 63.040543
-189.14322 59.510811 67.649658
-146.70033 47.050076 49.743683
-117.92696 38.624691 37.924572
-98.886749 33.036057 29.910198
-84.973061 28.946419 23.971859
-67.382881 23.933477 18.738825
-57.209473 21.000843 15.231451
-15.745651 9.7850428 11.583475
-46.137909 17.733719 10.31908
-41.868885 16.473207 8.414566
-16.185116 9.6808748 8.396677
-34.388496 14.285378 5.3788891
-31.403481 13.411089 4.1497488
-24.353922 11.52461 3.8244293
-21.203739 10.646421 3.1704996
-19.916315 10.244278 2.2776933
-18.546925 9.8273535 1.4844579
-18.108324 9.6435366 0.50349092
-16.726517 9.2344131 -0.12917389
-15.476453 8.8623085 -0.73012984
-14.090579 8.4641562 -1.1887134
-12.985042 8.1376467 -1.6831294
-11.818416 7.8012385 -2.0868669
-131.95544 44.330799 63.008129
-137.80792 45.619957 59.158115
-139.79976 45.783268 53.892662
-132.44662 43.297783 46.284279
-117.96902 38.862591 37.900017
-98.586769 33.144169 29.822691
-84.805168 29.066393 23.909458
-66.801025 23.909916 18.643597
-57.095512 21.087154 15.184999
-51.628994 19.447672 12.523198
-45.906769 17.769163 10.279162
-41.750225 16.531006 8.3770123
-16.141148 9.7177572 8.3746929
-34.411495 14.366804 5.3333592
-31.381771 13.475616 4.1095629
-28.420038 12.615355 3.0703464
-25.208061 11.706922 2.2954745
-20.440254 10.425745 2.1121953
-18.15868 9.7797747 1.552449
-18.127148 9.6952219 0.45751783
-16.634319 9.256629 -0.13790126
-15.480514 8.9055548 -0.77190685
-13.932212 8.4663687 -1.1638159
-12.953275 8.1680059 -1.7088428
-11.768721 7.8254614 -2.1025949
-136.36926 45.902103 64.590492
-137.70731 45.877697 59.12627
-188.97049 60.195992 67.565323
-131.91898 43.41753 46.130711
-117.52651 38.978458 37.774429
-98.519547 33.328465 29.771774
-84.61367 29.18956 23.841421
-66.048363 23.84605 18.529942
-56.900326 21.158499 15.131054
-15.396687 9.7929573 11.53511
-45.739536 17.827053 10.236223
-41.685745 16.608374 8.3344755
-37.943726 15.490737 6.6839142
-34.25198 14.405602 5.3048444
-31.312479 13.532228 4.0733318
-22.230982 11.103649 4.1192565
-25.278231 11.787711 2.2357104
-20.168276 10.412448 2.1365297
-18.141291 9.8262129 1.5161866
-17.778482 9.6594801 0.52261555
-16.776731 9.3385592 -0.22952627
-15.428957 8.9380341 -0.79541445
-13.925591 8.5069008 -1.2033803
-12.866685 8.1876669 -1.712759
-11.705592 7.8486357 -2.1144254
-135.27267 46.260658 70.234734
-136.84703 46.300117 64.773224
-131.61551 43.57103 46.033867
-117.503 39.186024 37.738068
-98.460762 33.493145 29.726406
-84.457375 29.302919 23.782686
-66.193069 24.012394 18.50679
-56.763763 21.231831 15.085198
-14.94867 9.7178936 11.505728
-15.068783 9.6772251 10.469175
-41.460411 16.632549 8.3036652
-15.723166 9.7045736 8.3556957
-15.990949 9.7013569 7.2859058
-31.171179 13.56197 4.0524201
-28.326561 12.72169 2.9998567
-22.125376 11.041791 2.8609869
-20.568336 10.561914 2.0016539
-17.789211 9.7835379 1.5771679
-17.593546 9.6579285 0.54206032
-16.759794 9.3767405 -0.26221099
-15.218751 8.9270172 -0.75432605
-13.852958 8.5269728 -1.2114286
-12.806744 8.2091303 -1.7239009
-11.668717 7.8737249 -2.1342444
-134.76483 46.40139 70.063545
-133.41057 45.573654 63.5662
-131.24257 43.734573 45.917358
-117.18592 39.337471 37.637714
-98.350647 33.666492 29.667826
-84.253838 29.423122 23.712677
-66.244987 24.169731 18.469852
-56.668751 21.330502 15.036992
-51.252785 19.674482 12.386395
-45.836842 18.047798 10.150694
-41.415276 16.715187 8.2599001
-37.670364 15.583614 6.6176124
-34.067818 14.509224 5.2377706
-31.173168 13.637193 4.0054331
-17.133156 9.8987226 4.9559498
-25.311609 11.916193 2.1424134
-19.520378 10.351616 2.2162986
-19.229652 10.196059 1.1339288
-17.556303 9.6982775 0.51077986
-16.456505 9.3496895 -0.20096777
-15.136068 8.9516973 -0.7661128
-13.948485 8.5923653 -1.2936858
-12.74046 8.2334671 -1.737048
-11.595084 7.8943443 -2.1412492
-132.09088 45.873363 69.03344
-135.48767 46.463432 64.31852
-141.26202 47.319679 54.24419
-132.68019 44.407894 46.236923
-116.9643 39.502609 37.558628
-98.224182 33.824558 29.608547
-84.022293 29.525536 23.641232
-66.285454 24.316757 18.433767
-14.032028 9.6400471 12.469646
-14.622458 9.7289791 11.458723
-45.665085 18.099072 10.109677
-14.968523 9.6761303 9.3946753
-15.241387 9.675355 8.3407946
-15.467217 9.661829 7.287528
-16.088758 9.7513542 6.1662359
-28.009403 12.774219 2.9659519
-22.485468 11.248805 2.7017167
-18.573236 10.161048 2.4105213
-18.562382 10.077454 1.2799487
-17.161489 9.6464329 0.5937894
-16.291445 9.3536129 -0.18481885
-15.056638 8.974597 -0.77695012
-14.036181 8.653904 -1.3709909
-12.64637 8.2488632 -1.7355096
-11.554796 7.9207339 -2.1621504
-135.17607 46.661636 64.222496
-139.04758 47.389015 59.550453
-188.89848 61.641846 67.472069
-133.01875 44.782185 46.290466
-116.79211 39.696026 37.487434
-98.041458 33.978062 29.537296
-83.826523 29.64802 23.571846
-66.08432 24.404482 18.372267
-13.994028 9.680624 12.449845
-14.381952 9.7140846 11.432899
-45.566349 18.175938 10.065086
-41.146278 16.827452 8.1821947
-37.399426 15.681647 6.5480819
-15.409191 9.6967955 7.2647686
-30.94422 13.722955 3.9472754
-28.01779 12.845725 2.9174759
-25.357737 12.052728 2.0422852
-22.558203 11.236831 1.3818067
-20.066172 10.511986 0.81361639
-17.185982 9.7019501 0.54305762
-16.544538 9.4641447 -0.31667531
-15.035212 9.0142622 -0.81241399
-13.853453 8.6520786 -1.338782
-12.538923 8.2631187 -1.7303658
-11.501198 7.9460521 -2.1791136
-133.43973 46.414162 63.618816
-188.91098 62.01112 67.457115
-131.9964 44.744324 46.018993
-116.5574 39.858196 37.405323
-97.891731 34.130424 29.473612
-83.623138 29.758415 23.503799
-65.822701 24.467203 18.307283
-56.19619 21.561306 14.884876
-50.831032 19.888977 12.247005
-45.333015 18.210106 10.024476
-14.632126 9.6834297 9.3618717
-37.103649 15.68475 6.5273352
-33.77195 14.664073 5.135345
-30.775743 13.749345 3.9272697
-28.010048 12.909452 2.8741198
-22.182644 11.286211 2.6824136
-19.028141 10.381427 2.217422
-18.92613 10.272082 1.0933148
-17.162252 9.7427778 0.50958329
-16.33794 9.4576206 -0.28634819
-14.996367 9.0471973 -0.83908695
-13.633487 8.6383247 -1.2883993
-12.475385 8.2856998 -1.742646
-11.440204 7.9674697 -2.1902668
-138.2814 48.142391 65.355133
-188.87155 62.345043 67.42868
-131.84781 44.946411 45.958546
-116.3586 40.017406 37.332417
-97.746536 34.272526 29.412798
-83.412163 29.856949 23.437029
-65.462479 24.493206 18.235542
-13.57825 9.6576328 12.393381
-50.784409 19.978251 12.205645
-45.18824 18.262634 9.9852867
-40.900024 16.935156 8.107935
-37.079288 15.756187 6.4871883
-33.571861 14.682365 5.1160393
-30.745821 13.808284 3.8891971
-27.812496 12.919307 2.867842
-23.032394 11.561926 2.4594455
-22.244331 11.264292 1.3754667
-17.978735 10.075674 1.3230886
-16.834419 9.7034559 0.57480156
-16.289049 9.4878206 -0.30869251
-14.664216 9.004385 -0.75054699
-13.753923 8.7059765 -1.3777921
-12.343545 8.289258 -1.7217357
-11.371936 7.9849415 -2.1955752
-134.80571 47.8274 70.225319
-133.09171 46.85825 63.52314
-141.50555 48.976746 60.328369
-188.80005 62.714321 67.388992
-132.64073 45.459839 46.120174
-116.10256 40.187557 37.243553
-97.656998 34.45454 29.356258
-83.233147 29.984451 23.369188
-65.090607 24.531754 18.157875
-56.106926 21.774635 14.797024
-13.614799 9.644495 11.358744
-45.017349 18.319452 9.9411888
-40.780666 16.997995 8.0664825
-36.888714 15.792202 6.4552369
-33.573311 14.763954 5.0680842
-30.622303 13.850639 3.8596141
-27.900703 13.012617 2.8037205
-17.966799 10.287797 3.5177386
-19.235439 10.537714 2.0854535
-19.554859 10.535274 0.83035529
-16.39748 9.640914 0.67044514
-16.365339 9.5551062 -0.38026017
-14.764735 9.074523 -0.83346242
-13.754787 8.7491083 -1.4224987
-12.266548 8.3105612 -1.7305249
-11.338005 8.0150032 -2.2226112
-135.21964 48.222912 70.417358
-136.24677 48.088337 64.660011
-218.01315 72.539024 84.542061
-188.70529 63.034557 67.34491
-132.3891 45.634098 46.034626
-115.81414 40.320763 37.152271
-97.51886 34.599377 29.296242
-83.079124 30.099636 23.309336
-64.651085 24.534035 18.078852
-55.906235 21.830153 14.74645
-13.444132 9.6412783 11.33727
-44.821545 18.357542 9.9024677
-40.826611 17.096096 8.0220633
-36.883499 15.86916 6.4130802
-33.322102 14.767991 5.0546522
-30.408136 13.86006 3.8489563
-27.855705 13.063047 2.7690272
-24.986099 12.195762 1.9465587
-22.467627 11.435085 1.2310653
-18.997349 10.438701 0.94951516
-16.602444 9.7372122 0.56633848
-16.254456 9.5696812 -0.38115835
-14.708453 9.1004562 -0.85127509
-13.660273 8.7637739 -1.4223708
-12.246348 8.3413992 -1.7603261
-11.29973 8.0397739 -2.2428756
-134.9623 48.461945 70.348618
-136.14137 48.372993 64.638893
-216.47655 72.550201 84.05574
-188.74925 63.463821 67.335823
-131.87274 45.775967 45.880871
-115.68226 40.542011 37.086006
-97.33194 34.765656 29.220787
-82.845245 30.221436 23.231644
-64.723457 24.707609 18.039442
-55.835052 21.944061 14.69548
-13.342292 9.6656837 11.313915
-44.742405 18.445744 9.8541727
-40.587833 17.131222 7.9833245
-36.695618 15.910649 6.3779044
-33.387058 14.871817 4.9958744
-30.430756 13.94605 3.7942772
-27.661903 13.085241 2.7537091
-20.033541 10.943165 2.985898
-20.14793 10.885504 1.7697716
-20.202539 10.811033 0.55501771
-16.234291 9.6939211 0.63829213
-16.061035 9.570981 -0.36032215
-14.560082 9.1105146 -0.84086919
-13.525153 8.7752476 -1.4126438
-12.236597 8.3816566 -1.80256
-11.302577 8.0811033 -2.2908692
-134.38977 48.55204 70.149529
-136.76979 48.836926 64.876724
-215.36249 72.612015 83.703163
-188.59976 63.77037 67.276276
-131.49379 45.912136 45.764614
-115.50681 40.709656 37.017136
-82.679825 30.333656 23.169939
-64.708267 24.832375 17.999079
-55.712555 22.022091 14.648883
-49.977123 20.19309 12.012305
-13.559996 9.6980724 10.29398
-40.561695 17.209684 7.9418969
-36.477303 15.928667 6.3533125
-33.236851 14.903225 4.9703879
-15.045783 9.8093119 6.1073861
-27.494394 13.10253 2.7416008
-24.801432 12.272765 1.893546
-22.407265 11.536128 1.1538786
-17.244398 10.082312 1.36783
-15.939522 9.6607113 0.69448084
-15.919765 9.5773001 -0.35030711
-14.655631 9.1751556 -0.91816521
-13.42049 8.7870398 -1.4082987
-12.316734 8.437789 -1.8789827
-11.233578 8.0983477 -2.2964072
-135.13916 48.614082 64.310585
-188.59833 64.145576 67.256531
-131.21777 46.094837 45.671349
-115.40725 40.914253 36.961098
-82.499741 30.451576 23.103678
-64.503525 24.910383 17.938755
-55.49049 22.078474 14.594181
-12.948478 9.6453619 11.269156
-44.421432 18.547153 9.7724829
-40.387115 17.251835 7.9050994
-36.453583 16.005739 6.309454
-33.241718 14.982029 4.923511
-30.107763 13.996844 3.7538922
-27.46339 13.160646 2.7011094
-18.458296 10.623293 3.2579253
-17.283651 10.22416 2.4208665
-20.039137 10.87061 0.51560807
-15.854728 9.6845703 0.68066776
-15.632953 9.5482864 -0.29071984
-14.473564 9.1713696 -0.889741
-13.453932 8.836215 -1.4652251
-12.191481 8.4447918 -1.863817
-11.101182 8.1018829 -2.2731166
-132.66588 48.137833 63.444748
-213.65454 72.968063 83.162613
-188.66676 64.566406 67.254837
-132.57858 46.794842 45.966526
-115.26812 41.121582 36.894775
-96.450043 35.098892 28.955017
-82.33503 30.584097 23.03669
-64.37558 25.01918 17.882683
-55.396713 22.179243 14.543808
-49.493042 20.279261 11.912309
-44.20866 18.591471 9.7284708
-40.264973 17.314102 7.8626866
-36.492527 16.105688 6.2569852
-32.997837 14.996353 4.9035292
-14.698503 9.8117981 6.0975027
-27.183779 13.154739 2.7046521
-24.757181 12.387768 1.8085152
-20.835936 11.231584 1.4644544
-18.471842 10.509477 0.92484963
-15.583752 9.6619663 0.72489327
-15.373461 9.5283747 -0.24293803
-14.429659 9.2054234 -0.91801786
-13.543789 8.9024982 -1.5492767
-12.153555 8.4759941 -1.8914794
-11.015945 8.1191263 -2.2756448
-131.52235 48.041348 63.050934
-141.96104 50.871937 60.472527
-188.36534 64.829842 67.152756
-132.08789 46.899307 45.823135
-115.10665 41.294704 36.828014
-96.305824 35.243275 28.892998
-82.127548 30.684 22.969187
-64.248985 25.112013 17.831514
-55.183208 22.23086 14.491735
-12.641399 9.6512918 11.225226
-44.160755 18.671394 9.6867056
-40.147102 17.366816 7.8253832
-36.393692 16.15719 6.2216311
-33.078075 15.09206 4.8496709
-29.980015 14.105324 3.6801462
-27.187698 13.218558 2.6598742
-18.435034 10.721144 3.1850512
-19.116211 10.81872 1.8675603
-16.555056 10.044289 1.4452689
-15.543298 9.6944456 0.699067
-15.394545 9.5762501 -0.29099208
-14.281625 9.2074528 -0.90031493
-13.448563 8.9167309 -1.5494541
-12.041534 8.4838171 -1.8799541
-10.966859 8.1411142 -2.2911799
-131.22005 48.260315 62.959709
-213.17345 73.707527 83.010353
-188.29193 65.232651 67.110237
-131.79858 47.113483 45.722622
-114.84959 41.481052 36.73555
-96.208473 35.437832 28.831026
-81.897797 30.807854 22.890881
-64.020485 25.199142 17.76359
-54.88179 22.277618 14.427419
-49.077438 20.384228 11.813292
-43.998745 18.73608 9.6387072
-40.016521 17.432117 7.7803807
-36.243916 16.209148 6.1823778
-13.420429 9.6274109 7.2167354
-29.778084 14.129593 3.6590593
-27.214851 13.300853 2.6019964
-24.690371 12.497342 1.7272108
-22.260105 11.732809 1.0026444
-19.161911 10.800382 0.63209087
-15.47098 9.7265835 0.67617929
-15.1722 9.5680161 -0.25877804
-14.173413 9.2271605 -0.90587997
-13.373089 8.9432116 -1.5658318
-12.110085 8.5445585 -1.9600422
-10.978138 8.1848383 -2.3446555
-130.79698 48.390781 62.822845
-212.98685 74.057877 82.951294
-188.26637 65.584816 67.084351
-131.57146 47.299374 45.641872
-114.62673 41.636379 36.656071
-96.137848 35.60548 28.780474
-81.765846 30.930792 22.832424
-63.784935 25.259815 17.702383
-54.746456 22.351883 14.379395
-12.291953 9.6462736 11.179711
-43.771255 18.763952 9.5999451
-39.828213 17.464437 7.7465901
-35.954849 16.206116 6.163754
-13.180121 9.6029825 7.2199349
-29.653955 14.162664 3.6340754
-27.167107 13.350851 2.5664337
-20.697567 11.453857 2.5895038
-18.793268 10.839271 1.8641
-18.961939 10.795501 0.64893603
-15.379622 9.7454929 0.66675937
-15.162474 9.6078634 -0.29605147
-14.236394 9.2841825 -0.97199315
-13.297751 8.9624166 -1.5746537
-12.017823 8.557354 -1.957925
-10.96839 8.2169304 -2.3803358
-130.83423 48.703033 62.85207
-213.0533 74.542107 82.972328
-188.12997 65.948624 67.025238
-132.68727 47.939167 45.87661
-114.44201 41.831856 36.579792
-95.995041 35.775631 28.713066
-81.528481 31.042328 22.755463
-63.7314 25.39142 17.652124
-54.659409 22.45505 14.328516
-48.964233 20.571558 11.721299
-43.715244 18.853613 9.5523376
-39.714134 17.528986 7.7031345
-35.970745 16.300407 6.1120601
-32.741302 15.240773 4.7430859
-29.697775 14.251711 3.5765996
-13.695043 9.6451559 5.1312652
-21.777729 11.813576 2.2974076
-22.198339 11.831778 0.92501324
-17.809759 10.536962 0.94324613
-15.009521 9.6945143 0.74464697
-14.823863 9.565279 -0.21866435
-14.051154 9.2809668 -0.94457334
-13.095377 8.9531565 -1.533723
-11.859092 8.5573997 -1.9298663
-10.922187 8.2440958 -2.4031091
-130.22514 48.773743 62.648914
-212.98805 74.934875 82.951675
-188.01213 66.274796 66.973465
-132.75494 48.221085 45.865269
-113.9795 41.912827 36.452347
-95.81559 35.910889 28.644367
-81.269363 31.126722 22.680885
-63.591484 25.480833 17.598894
-54.532009 22.532053 14.280447
-11.888581 9.6208649 11.134892
-12.487359 9.7230263 10.16047
-39.525394 17.56085 7.6692057
-35.820724 16.337015 6.0808005
-32.678719 15.296884 4.7057014
-29.762405 14.338568 3.5208352
-26.979239 13.433099 2.5069754
-17.757242 10.745937 3.17818
-15.730218 10.097822 2.5860267
-19.395853 11.019096 0.42905936
-14.898512 9.7075157 0.74195111
-14.62379 9.5537834 -0.18627225
-14.073305 9.3274508 -0.99492818
-12.990147 8.9641733 -1.5294776
-11.866415 8.5958099 -1.974525
-10.862229 8.2633924 -2.4139342
-187.93523 66.637909 66.931702
-131.90491 48.22998 45.634193
-113.85772 42.114456 36.3904
-95.50441 36.017406 28.551794
-81.044197 31.231642 22.607784
-63.449654 25.578226 17.542902
-54.38448 22.610262 14.228563
-48.416065 20.623127 11.624747
-43.37907 18.949478 9.4691925
-39.378433 17.610231 7.6300445
-35.76263 16.405306 6.038125
-32.569447 15.344258 4.6711187
-29.561268 14.354169 3.5047939
-26.864874 13.468385 2.4810078
-24.46554 12.681819 1.5904628
-19.30069 11.139186 1.6004596
-16.741043 10.341261 1.1776855
-14.873687 9.746542 0.70812988
-14.430294 9.5463018 -0.15858912
-14.16111 9.3942585 -1.0746747
-12.86155 8.9712896 -1.517686
-11.850138 8.6305017 -2.0109954
-10.72965 8.2659922 -2.3907018
-187.85191 67.023834 66.886795
-131.43698 48.375271 45.492096
-113.39322 42.222801 36.257931
-95.328819 36.178211 28.478409
-80.861359 31.360056 22.536896
-63.285934 25.677217 17.482218
-54.246113 22.698465 14.174465
-11.46366 9.589776 11.089163
-12.176983 9.7282267 10.12208
-12.064043 9.6186295 9.1606903
-35.588291 16.444719 6.0031633
-32.522747 15.41444 4.6255002
-29.503176 14.414908 3.4626005
-26.684992 13.488936 2.4649813
-23.226015 12.39851 1.8266906
-17.335201 10.646649 2.07686
-19.88909 11.265842 0.18481775
-14.695008 9.7461767 0.72308487
-14.432768 9.5942688 -0.20566267
-14.105042 9.4253922 -1.0996104
-12.86862 9.0167246 -1.5679395
-11.780684 8.6535845 -2.025146
-10.673124 8.2903528 -2.4085913
-187.77632 67.390831 66.845062
-139.74625 51.32378 47.430397
-113.0983 42.370144 36.161236
-95.091827 36.307991 28.39749
-80.691315 31.48254 22.470137
-63.133213 25.771189 17.424936
-54.116909 22.782333 14.123186
-48.317581 20.822454 11.528467
-43.045048 19.057343 9.3800964
-39.223217 17.755524 7.5404148
-35.509323 16.507032 5.9620314
-32.343407 15.441424 4.5995793
-12.845022 9.6646576 6.1438942
-26.639765 13.543814 2.4251027
-24.312908 12.768699 1.525779
-20.446938 11.573466 1.201847
-19.961155 11.340519 0.11526676
-15.067683 9.8948679 0.55509347
-14.587646 9.6814222 -0.30708522
-13.883545 9.4092207 -1.0549849
-12.858849 9.0554094 -1.6085814
-11.674762 8.66467 -2.0195212
-10.599796 8.3081436 -2.4155011
-187.68448 67.777443 66.797447
-133.53062 49.627937 45.926212
-112.76441 42.519314 36.054447
-94.884071 36.459671 28.318398
-80.496452 31.607759 22.39728
-62.910179 25.851934 17.358824
-53.813046 22.819693 14.060653
-11.089261 9.5719395 11.044636
-42.78072 19.084667 9.3363047
-11.71636 9.6105328 9.1316652
-11.883538 9.584074 8.1602612
-32.157497 15.470893 4.5715008
-29.460325 14.553906 3.3681874
-13.020685 9.6863718 5.0968814
-24.178837 12.797552 1.5052372
-16.928028 10.637276 2.0990751
-13.652648 9.6305819 1.9801127
-14.838608 9.8807039 0.58653545
-14.15215 9.6096888 -0.19197105
-13.757957 9.4212179 -1.0516676
-12.785812 9.0796547 -1.6241857
-11.575427 8.6796551 -2.0196424
-10.552801 8.3349438 -2.4385235
-187.41963 68.062782 66.704361
-131.74884 49.317738 45.476143
-112.51419 42.667114 35.968544
-94.82148 36.633476 28.267429
-80.348213 31.726824 22.335503
-62.910027 25.985821 17.316511
-53.663662 22.890015 14.010818
-47.904232 20.92001 11.430164
-42.727451 19.163837 9.2928429
-38.955433 17.86211 7.4593391
-35.320255 16.622766 5.8819017
-32.082874 15.523696 4.5347018
-29.274307 14.569075 3.3521371
-26.498192 13.639201 2.3547308
-19.671009 11.562244 2.5213888
-17.375187 10.812607 1.9383576
-16.664036 10.521657 1.0240475
-16.648888 10.429485 -0.068896659
-13.953235 9.5969152 -0.15921271
-13.679318 9.4407196 -1.0622547
-12.739333 9.1061583 -1.6464065
-11.581164 8.7180424 -2.0648031
-10.541345 8.3668308 -2.4747443
-187.34692 68.458969 66.66169
-131.29164 49.468731 45.335922
-112.28963 42.852097 35.883015
-94.573875 36.77261 28.181633
-80.255219 31.884888 22.274515
-62.818905 26.108534 17.260988
-53.512482 22.974545 13.955223
-47.692974 20.973679 11.378082
-42.618031 19.238058 9.2449512
-38.681763 17.878487 7.4242582
-11.667601 9.6116037 8.1283512
-31.975092 15.576065 4.4961963
-29.223837 14.632552 3.3075633
-26.357029 13.670495 2.3305061
-24.147844 12.915908 1.4134587
-20.261772 11.69392 1.1083308
-13.889763 9.7885332 1.8273019
-16.099674 10.327781 0.069269225
-13.312629 9.4662199 0.034554169
-13.524149 9.4442549 -1.0468099
-12.685578 9.135582 -1.6708499
-11.452069 8.724885 -2.050853
-10.454583 8.3831396 -2.477757
-187.29182 68.839653 66.624962
-131.03117 49.667397 45.24382
-112.31571 43.10482 35.848923
-94.44426 36.938202 28.116804
-79.721169 31.89196 22.163099
-62.652824 26.199085 17.201796
-53.534153 23.105856 13.910232
-10.569772 9.5508642 10.980809
-42.506538 19.305777 9.1996775
-38.571461 17.938679 7.3819985
-34.975651 16.696917 5.813344
-31.863688 15.622685 4.460938
-29.18853 14.696371 3.263072
-12.570375 9.6931915 5.0873861
-20.255539 11.848634 2.2910993
-21.137466 12.00289 0.82174939
-19.56485 11.451986 0.039136156
-15.694642 10.26232 0.16206568
-13.062465 9.440218 0.085286275
-13.274332 9.4187546 -0.98957717
-12.576159 9.1473513 -1.6680082
-11.218593 8.7009125 -1.9838945
-10.4198 8.4110804 -2.5050631
-187.02187 69.150536 66.528778
-132.49336 50.43697 45.557747
-111.85585 43.199245 35.718964
-94.265877 37.088512 28.04405
-79.38559 31.961754 22.075426
-62.589615 26.322937 17.150631
-53.381748 23.183064 13.856802
-10.51579 9.5803099 10.960769
-42.462002 19.394321 9.1523476
-38.431545 17.989841 7.341392
-34.826065 16.738089 5.7781458
-11.526209 9.5842333 7.1457338
-29.074261 14.736879 3.2317014
-26.193539 13.759632 2.2634239
-23.888319 12.968369 1.3750224
-21.57579 12.188327 0.65240508
-16.169697 10.534202 1.0400052
-14.503576 9.9727602 0.52604043
-13.393102 9.5767746 -0.083546408
-13.319862 9.4747963 -1.0541009
-12.457 9.1562471 -1.6607425
-11.220426 8.7405319 -2.0302906
-10.40432 8.4442673 -2.5425591
-156.80342 59.923195 65.169952
-158.21674 59.824661 58.564632
-131.60776 50.397968 45.321323
-111.65672 43.350697 35.644756
-94.129326 37.228104 27.983017
-79.398186 32.123016 22.034832
-62.61552 26.458422 17.112171
-53.192043 23.233652 13.80715
-10.421162 9.5915098 10.942653
-10.680611 9.5961618 10.007218
-11.053153 9.6348238 9.0543919
-34.787613 16.802841 5.7376137
-31.59437 15.692389 4.4021463
-28.962328 14.769222 3.2057829
-26.059006 13.780479 2.2464125
-15.168343 10.463676 3.4299581
-19.528027 11.645201 1.172515
-16.195105 10.585704 0.99259937
-14.012425 9.8739519 0.65653569
-13.268125 9.5806522 -0.07524354
-13.205495 9.4813194 -1.0472347
-12.354695 9.1647549 -1.6555692
-11.218827 8.7747231 -2.0698643
-10.346253 8.4616022 -2.5527878
-156.23938 60.12072 64.99144
-131.33902 50.631531 45.222927
-111.27595 43.500095 35.525364
-93.86805 37.37682 27.891459
-79.211365 32.26215 21.959007
-62.25198 26.503584 17.03043
-53.104416 23.34617 13.750895
-47.177769 21.264036 11.182509
-42.091465 19.484234 9.0650358
-38.063705 18.064699 7.2654805
-34.661808 16.861483 5.6938033
-11.21362 9.5807209 7.1304512
-11.537353 9.6014538 6.1441212
-12.082582 9.6862354 5.0864005
-20.997116 12.242406 1.9738142
-21.494526 12.283873 0.57435548
-16.624228 10.766305 0.80819839
-14.134436 9.960557 0.56516457
-13.187013 9.6071796 -0.094044052
-13.086158 9.4965105 -1.0491319
-12.345622 9.2088442 -1.703421
-11.222857 8.8198843 -2.1233957
-10.216863 8.4683075 -2.536695
-155.48753 60.191654 64.753487
-131.8502 51.077217 45.31321
-111.04543 43.655884 35.442421
-93.711983 37.523022 27.824247
-78.953911 32.346542 21.88312
-61.895962 26.524797 16.957783
-52.979462 23.424908 13.701042
-10.146232 9.6000175 10.900013
-42.014889 19.557108 9.0208273
-38.026836 18.142157 7.2206564
-34.547291 16.908241 5.6575603
-31.304457 15.769553 4.3367572
-28.73592 14.855053 3.1389222
-12.080235 9.7286139 5.0549793
-15.637117 10.706226 3.2340579
-14.42871 10.261315 2.4937692
-19.409634 11.625927 -0.10857482
-15.918921 10.519056 -0.098429061
-12.872746 9.5592575 -0.015823241
-13.007214 9.5152588 -1.0598155
-12.337069 9.245863 -1.7436774
-11.236524 8.860918 -2.1738775
-10.155379 8.486783 -2.548003
-132.5327 51.63649 45.437649
-110.76337 43.838581 35.341969
-93.466675 37.677441 27.734709
-78.661537 32.451462 21.794342
-61.730278 26.633139 16.892002
-52.794121 23.506813 13.639749
-46.835663 21.389416 11.08015
-41.864521 19.625057 8.9699621
-37.889122 18.204996 7.173398
-34.459084 16.978584 5.6093516
-31.197493 15.826756 4.2941175
-11.308407 9.6256084 6.1192794
-25.826931 13.93047 2.1320579
-23.722614 13.181015 1.2078526
-20.821699 12.208353 0.65781909
-19.115398 11.602251 -0.072350934
-15.264024 10.384461 0.077791229
-12.772358 9.5797396 -0.027060779
-12.955911 9.5495186 -1.0903536
-12.375603 9.3036842 -1.8140132
-11.132798 8.8764734 -2.1753864
-10.103444 8.5144501 -2.5725904
-222.33459 84.195747 85.909744
-131.70717 51.651085 45.211372
-110.65668 44.051617 35.280319
-93.318382 37.839611 27.665565
-78.285744 32.507343 21.701374
-61.484299 26.698145 16.825258
-52.610554 23.574121 13.584289
-46.706528 21.462154 11.030411
-9.9448652 9.5565205 9.9371872
-37.775894 18.264414 7.1302118
-34.288445 17.013002 5.5756388
-31.238417 15.920297 4.2366033
-28.482664 14.936914 3.0729911
-25.70915 13.964251 2.1050091
-23.484514 13.174492 1.2144684
-18.501015 11.576819 1.2601285
-16.1563 10.78583 0.81406081
-14.726964 10.276529 0.2197233
-12.708575 9.6054688 -0.047247164
-12.698095 9.519639 -1.0285397
-12.333357 9.3340197 -1.8423229
-11.093958 8.9053726 -2.2033381
-10.077033 8.5447855 -2.6053956
-220.86749 84.175446 85.445419
-131.06387 51.726582 45.027912
-110.31888 44.186874 35.173409
-93.103569 37.979885 27.585674
-77.993256 32.59037 21.618073
-61.16267 26.738287 16.75239
-52.473423 23.656574 13.530501
-46.642929 21.556217 10.980723
-41.557789 19.734653 8.8795166
-37.49979 18.272146 7.098114
-34.184719 17.068291 5.5347424
-31.162722 15.978049 4.1950688
-28.221889 14.931941 3.0665963
-25.803936 14.062854 2.0326641
-23.130571 13.132433 1.2500137
-21.321188 12.476904 0.4149161
-19.275593 11.761504 -0.22490007
-15.95801 10.685905 -0.26150435
-12.421445 9.566328 0.01911019
-12.576654 9.528306 -1.0239124
-12.223145 9.3450594 -1.8397342
-10.977548 8.912488 -2.1932044
-10.069618 8.5804815 -2.648488
-219.41197 84.155602 84.984764
-131.43465 52.150829 45.081982
-92.906548 38.126549 27.508459
-78.117287 32.812984 21.583105
-60.822891 26.771589 16.678249
-52.344231 23.741997 13.47667
-46.521759 21.631876 10.930552
-9.6750765 9.5615845 9.9016399
-37.47179 18.358568 7.0486665
-10.103606 9.5431318 8.0460958
-30.980881 16.002705 4.1683569
-28.17329 14.992226 3.0226946
-25.588785 14.066936 2.0260093
-23.067595 13.177937 1.2136227
-15.293655 10.72315 2.0758762
-15.350977 10.648406 0.97798711
-16.892323 11.011889 -0.64170396
-12.435212 9.6143408 -0.0312596
-12.513239 9.5535784 -1.0439824
-12.055037 9.3393803 -1.8104087
-10.861259 8.9194679 -2.1830301
-10.004112 8.6000519 -2.6610713
-217.94121 84.127098 84.519287
-132.10667 52.682961 45.206066
-92.698174 38.269787 27.429171
-77.98896 32.951889 21.518364
-60.585381 26.838419 16.611948
-52.308491 23.858274 13.426531
-46.305702 21.676582 10.879908
-41.353535 19.877253 8.7849922
-37.49028 18.46032 6.9956374
-33.956867 17.172506 5.4544816
-30.894812 16.057241 4.1278563
-28.229731 15.085445 2.9596241
-25.624086 14.147931 1.9655167
-23.148733 13.267598 1.1409527
-19.400221 12.017168 0.85891128
-19.200022 11.852122 -0.30426249
-15.957467 10.786651 -0.35914689
-12.361419 9.6368761 -0.04774392
-12.32425 9.5423336 -1.0105585
-11.742742 9.2918911 -1.7142262
-10.93725 8.980938 -2.2685938
-9.9385452 8.6195536 -2.6736734
-216.49057 84.102226 84.060181
-131.23267 52.679543 44.968201
-92.51651 38.422153 27.353859
-77.794708 33.068897 21.4457
-60.272827 26.880159 16.539715
-52.187248 23.946705 13.372581
-46.202122 21.758101 10.82939
-41.075775 19.891533 8.7435837
-9.9527826 9.6649313 8.9272032
-33.651817 17.163542 5.4348731
-10.214288 9.5907106 7.0652804
-28.131781 15.13079 2.9239118
-25.562378 14.199274 1.9255351
-23.084454 13.313125 1.1042315
-21.194752 12.621445 0.29348919
-18.01008 11.550475 0.02739111
-14.08204 10.278035 0.26264358
-12.181595 9.6280718 -0.022606067
-12.183745 9.5448427 -0.99766338
-11.873375 9.3716774 -1.8229222
-10.887799 9.0069399 -2.2920752
-9.9397449 8.657918 -2.7221882
-215.20639 84.162674 83.653755
-130.53336 52.753441 44.769173
-92.260735 38.562424 27.26396
