# .PCD v0.7 - Point Cloud Data file format
VERSION 0.7
FIELDS x y z
SIZE 4 4 4
TYPE F F F
COUNT 1 1 1
WIDTH 1521
HEIGHT 1
VIEWPOINT 0 0 0 1 0 0 0
POINTS 1521
DATA ascii
-7.1030803 1.0182898 -3.2442346
-5.8619008 0.89746279 -3.5090144
-4.9387374 0.80545568 -3.8265197
-3.9731269 0.71054059 -4.0843844
-2.9901605 0.61485034 -4.294035
-129.70374 13.270351 35.378368
-127.53049 12.848566 23.233742
-105.5739 10.672653 17.191538
-87.264053 8.8659649 12.593171
-64.215797 6.625905 8.7142076
-54.213642 5.6417413 6.3584642
-46.581234 4.8900161 4.5181289
-40.549297 4.2950888 3.0172055
-35.229362 3.7722883 1.8015896
-31.034906 3.3587892 0.76902145
-27.028738 2.9663377 -0.078097574
-23.343493 2.6071563 -0.75438666
-20.277157 2.3078704 -1.3414861
-15.051053 1.8148946 -1.3843757
-10.036057 1.3459198 -1.1967247
-9.6038284 1.2938432 -1.8328621
-9.5972939 1.2800623 -2.5691018
-8.6441793 1.1820242 -3.0320187
-7.0533652 1.0283185 -3.24912
-5.7981997 0.90548122 -3.5077102
-4.9093204 0.8158834 -3.8363125
-3.929363 0.71909589 -4.0876713
-2.9561958 0.6236437 -4.3001714
-130.18576 13.414374 35.485802
-136.77147 13.988163 32.671627
-176.93456 17.832727 34.712967
-134.66455 13.634666 24.127224
-87.16761 8.9233589 12.56603
-64.21994 6.6780815 8.6950445
-54.219952 5.6875257 6.338407
-46.48407 4.9209766 4.4974785
-8.7261534 1.330735 3.9196243
-8.6912088 1.3150589 3.2326038
-30.966335 3.3823378 0.75220251
-27.026337 2.9934464 -0.10025281
-23.238609 2.6224027 -0.7628566
-9.2454052 1.3162713 0.38015532
-17.45986 2.0549831 -1.8488652
-10.713233 1.4241692 -1.3578572
-9.8477364 1.3321698 -1.9101226
-9.4103088 1.2793487 -2.5404825
-8.5666351 1.1905489 -3.0305467
-7.0608001 1.0434266 -3.2722127
-5.7913709 0.91850227 -3.5260444
-4.8311362 0.82202941 -3.8280485
-3.8934648 0.728342 -4.0941572
-2.8343806 0.62478685 -4.268733
-130.22237 13.520953 35.501263
-177.18393 17.990944 34.741207
-128.28789 13.115203 23.300888
-105.32245 10.810691 17.129484
-87.049736 8.9828253 12.535874
-64.18911 6.7301049 8.6728973
-54.124882 5.7264824 6.31461
-46.387665 4.954423 4.47544
-40.395771 4.3551688 2.9771292
-35.062069 3.8239737 1.7654583
-8.5755243 1.3091507 2.5409513
-8.7301512 1.311069 1.8322564
-23.196264 2.6448998 -0.78098631
-20.342249 2.3612285 -1.3978437
-12.93255 1.660337 -1.0351605
-14.486952 1.7881004 -2.1749532
-9.5157347 1.3193022 -1.8522556
-9.1878204 1.2761952 -2.5035577
-8.4453192 1.1959891 -3.0175483
-7.0898848 1.0613891 -3.3036382
-5.7169166 0.92633641 -3.5223954
-4.8153129 0.83442134 -3.8443406
-3.8792834 0.74021965 -4.1106758
-2.8061948 0.63472354 -4.2786841
-131.90408 13.786592 35.85817
-136.74098 14.193262 32.666122
-177.211 18.120619 34.735664
-127.99445 13.180884 23.249207
-105.5124 10.908444 17.1306
-86.958786 9.040987 12.508819
-64.007347 6.7646332 8.6444883
-53.969818 5.7570052 6.2905478
-46.381184 4.9941545 4.4542146
-8.4859009 1.3420219 3.9061811
-34.959625 3.8470769 1.7489029
-30.906462 3.4385734 0.71066076
-26.931177 3.0410576 -0.13673784
-23.232967 2.6733665 -0.80851066
-20.300558 2.3804879 -1.4139029
-13.520193 1.7333841 -1.1638329
-12.571259 1.6307422 -1.7911453
-9.046648 1.292554 -1.7602779
-9.1826706 1.2917175 -2.5228276
-8.4332676 1.2103529 -3.0352542
-7.104651 1.0772876 -3.3295031
-5.72579 0.94080764 -3.5464673
-4.7369461 0.84048301 -3.8361583
-3.8190014 0.74730968 -4.1076102
-2.7480729 0.64133006 -4.2746081
-129.6935 13.657686 35.405933
-136.42021 14.25687 32.608166
-177.19907 18.239319 34.724697
-127.83181 13.253855 23.214964
-105.50578 10.982796 17.11278
-86.878006 9.096386 12.483601
-63.850182 6.7983947 8.6182852
-53.763695 5.7798481 6.2665505
-7.9673891 1.3202306 4.5910425
-40.277088 4.4144659 2.9380155
-34.845802 3.8671191 1.7342935
-8.2917347 1.3139464 2.5401731
-26.864805 3.0607083 -0.15115847
-23.164696 2.6905851 -0.82084513
-20.154119 2.3885903 -1.4119691
-13.959005 1.7921823 -1.2645193
-11.758767 1.5725501 -1.6381685
-8.9531813 1.2990531 -1.7563957
-8.9989271 1.2899452 -2.4936228
-8.4235764 1.2240494 -3.0524871
-7.0971522 1.0903624 -3.3471973
-5.7933726 0.9598214 -3.5898471
-4.7090683 0.85026622 -3.8456254
-3.7846999 0.75595719 -4.1138077
-2.7315183 0.65091348 -4.2873173
-129.07388 13.69866 35.285141
-135.69688 14.291784 32.477482
-177.31378 18.386181 34.731941
-134.19505 13.989007 24.006435
-105.05712 11.022849 17.048346
-86.806572 9.1606855 12.456548
-63.840778 6.8528733 8.596674
-53.791779 5.8308506 6.2451396
-46.173512 5.0550785 4.4120269
-8.2318325 1.3506387 3.8938141
-34.803349 3.8979414 1.7127609
-30.782364 3.4871666 0.67504412
-26.7719 3.0810876 -0.1655141
-8.6699648 1.341738 1.1034245
-20.166153 2.4142797 -1.4381858
-15.318661 1.9403328 -1.5403816
-8.7583656 1.3110921 -1.0202352
-9.3818674 1.3559178 -1.8799187
-8.7442808 1.2833388 -2.4478354
-8.350997 1.2338324 -3.0539773
-6.9867043 1.0957873 -3.3345215
-5.7667289 0.97202158 -3.6031876
-4.6684246 0.86044824 -3.8529685
-3.769891 0.76781964 -4.1304398
-2.7106586 0.66151768 -4.3008032
-128.73743 13.762422 35.222805
-136.44199 14.46903 32.612099
-177.88841 18.572636 34.810322
-128.47316 13.514047 23.266052
-86.777893 9.2254457 12.433646
-63.748333 6.8962255 8.5722075
-53.934799 5.8906541 6.2272015
-46.181149 5.0964818 4.3902559
-8.0423822 1.3487128 3.8895485
-7.8337226 1.3158799 3.2242563
-30.719563 3.5114365 0.6571244
-26.783358 3.1098459 -0.19002432
-22.989367 2.7257657 -0.84466141
-8.3571157 1.315412 0.44102994
-17.165068 2.1350739 -1.9082226
-10.049376 1.4486232 -1.3148835
-8.8730688 1.3247041 -1.7777768
-8.6896124 1.2941422 -2.4540451
-8.264657 1.2413981 -3.0501883
-7.0168037 1.1132051 -3.3657625
-5.7422252 0.98360783 -3.6161892
-4.589767 0.86639482 -3.8448379
-3.7330723 0.77698123 -4.1370916
-2.6995442 0.67232114 -4.3173881
-130.52873 14.050084 35.603489
-177.75761 18.696247 34.779594
-127.88577 13.556402 23.175886
-86.661621 9.2857561 12.402922
-63.620445 6.939271 8.544672
-53.735691 5.9196887 6.2005181
-7.4621787 1.3217728 4.5661845
-7.9502397 1.3571224 3.8817139
-34.556355 3.9419615 1.679998
-7.6949849 1.3070023 2.5509703
-7.9081006 1.3149515 1.8526042
-22.969612 2.7506111 -0.86661762
-19.910416 2.4378283 -1.4446625
-12.328309 1.6973746 -1.0223345
-10.442022 1.503746 -1.4199094
-8.9133997 1.34559 -1.8085982
-8.558383 1.2987002 -2.4410274
-8.2977057 1.2609489 -3.0829918
-6.9385319 1.1215379 -3.3636131
-5.7231417 0.99653685 -3.6324513
-4.5088282 0.87284786 -3.8370726
-3.6779916 0.78521425 -4.1377063
-2.6624832 0.68149042 -4.3240838
-130.22691 14.118604 35.548515
-177.86597 18.837046 34.786118
-128.07619 13.671881 23.184996
-86.646812 9.3522806 12.380763
-63.567238 6.9866133 8.5218172
-53.527874 5.9450178 6.1749282
-46.120609 5.1746001 4.3453541
-7.6698923 1.3459198 3.8804617
-34.327003 3.9525578 1.6702865
-30.512486 3.5538909 0.62628561
-26.591833 3.1484797 -0.21738665
-8.018177 1.3289548 1.1458163
-19.916746 2.4617295 -1.4690506
-17.027925 2.1660497 -1.9299507
-10.226854 1.5004928 -1.3936186
-8.4065371 1.3137623 -1.7061067
-8.3645725 1.2963214 -2.4099255
-8.154088 1.2631127 -3.0624475
-6.8465614 1.1276762 -3.3557446
-5.6659284 1.0051383 -3.6342134
-4.422091 0.87795037 -3.8259246
-3.6329219 0.79360855 -4.1412292
-2.6745582 0.69443482 -4.3510547
-199.63637 21.31988 44.029377
-177.87321 18.968103 34.777042
-133.89008 14.363679 23.904751
-86.605385 9.4163504 12.356464
-63.521015 7.0348768 8.4990797
-53.402321 5.9785099 6.1509109
-45.992599 5.2029214 4.323751
-7.3486896 1.330359 3.8806405
-7.2992821 1.3128952 3.2207785
-7.4351401 1.3137085 2.5479441
-26.576649 3.1748364 -0.23942228
-7.7971048 1.3235837 1.161037
-19.839882 2.4776587 -1.4801278
-12.29368 1.7311357 -1.0560762
-14.283533 1.9066867 -2.2899225
-8.3922434 1.3283639 -1.7225515
-8.2363443 1.2999892 -2.3963654
-8.0998611 1.273594 -3.0683391
-6.7465038 1.1330014 -3.345336
-5.6407466 1.0167015 -3.6473377
-4.3831916 0.8874343 -3.8329525
-3.6114507 0.80416673 -4.1543975
-2.6784358 0.70668864 -4.3746481
-177.63295 19.074066 34.72987
-128.70883 13.930538 23.23451
-86.496864 9.4738216 12.327092
-63.490196 7.0848279 8.4768877
-53.416378 6.0261283 6.1295853
-6.8818026 1.3124349 4.5431895
-6.9952273 1.3112226 3.8820405
-34.390522 4.0251522 1.6203601
-30.267733 3.5907445 0.59964365
-26.420258 3.1873744 -0.24595577
-7.5351167 1.3139848 1.1819651
-19.787506 2.495959 -1.4952588
-16.950916 2.2015607 -1.9621555
-10.2403 1.5362182 -1.4367758
-8.2060022 1.3264993 -1.6973219
-8.0837421 1.3012322 -2.3762054
-7.8915744 1.2694275 -3.0284667
-6.6463895 1.1382575 -3.3348899
-5.5831943 1.0252494 -3.6491609
-4.3123207 0.89392549 -3.8278942
-3.5344086 0.8095839 -4.1450229
-2.6113429 0.71243584 -4.3673344
-177.84177 19.211491 34.752785
-127.86394 13.929233 23.114254
-86.451553 9.5298347 12.304759
-63.378078 7.1203542 8.4532957
-53.51923 6.0775151 6.1123462
-6.691782 1.3074167 4.5366588
-39.61264 4.6062832 2.8003452
-7.020504 1.3153121 3.2159986
-30.205105 3.6114619 0.58394736
-26.463373 3.2162859 -0.27193883
-22.90303 2.8429019 -0.94952798
-19.792297 2.5171287 -1.5170678
-10.728729 1.6135852 -0.79591566
-14.329337 1.9483052 -2.3435252
-9.4777966 1.4633399 -2.0254519
-7.896183 1.2971348 -2.3440216
-7.6728258 1.2622609 -2.9827685
-6.6319351 1.1498513 -3.3496954
-5.4904695 1.0288094 -3.6359987
-4.2459445 0.89926606 -3.821975
-3.461808 0.81388843 -4.1347971
-2.618994 0.72367668 -4.3902459
-178.12804 19.396563 34.784401
-127.54622 14.010798 23.05595
-86.263832 9.5915251 12.265555
-63.350483 7.1803575 8.4273033
-53.490219 6.1293921 6.085907
-6.6612792 1.3231463 4.5265131
-6.8652329 1.331157 3.8656051
-34.278893 4.0827842 1.5783757
-30.00835 3.6277592 0.57255083
-7.0581985 1.312358 1.8775901
-7.0760455 1.3013396 1.2145884
-19.710335 2.5367413 -1.5318757
-9.5443316 1.51811 -0.5920915
-12.740507 1.8163601 -2.0245137
-9.6063623 1.4955974 -2.081918
-7.8168378 1.3079461 -2.3473053
-7.4168081 1.255831 -2.9321332
-6.60428 1.1645451 -3.366935
-5.3934932 1.0360068 -3.6278431
-4.2790694 0.9178347 -3.8607204
-3.4016969 0.82301933 -4.136322
-2.592279 0.73527062 -4.4047899
-178.54027 19.564833 34.837631
-132.24422 14.596325 23.633162
-86.122566 9.64186 12.234697
-63.259975 7.2214079 8.4031878
-53.361038 6.1601148 6.0625677
-45.706684 5.3391175 4.2350354
-6.5574098 1.3149208 3.8664858
-6.73949 1.3207985 3.2087669
-29.808062 3.6363606 0.56713665
-26.287745 3.2581885 -0.30366951
-22.816214 2.8886406 -0.98884046
-19.72648 2.5605426 -1.5573492
-16.824419 2.2539597 -2.0093989
-14.416253 1.9990159 -2.4125645
-8.9168415 1.444073 -1.9327331
-7.7645874 1.3176602 -2.3530769
-7.5749941 1.2856023 -3.0004437
-6.4664106 1.165182 -3.3429217
-5.3301773 1.0430735 -3.6264694
-4.2655187 0.9289605 -3.8766019
-3.4132712 0.83594835 -4.16224
-2.5504079 0.74263668 -4.407496
-179.2003 19.776224 34.92749
-128.40831 14.297769 23.13315
-85.989197 9.7012491 12.201789
-63.321781 7.2847099 8.3833914
-53.338081 6.2073426 6.0385089
-45.683762 5.3807669 4.2107921
-39.290413 4.6913772 2.7368407
-34.039513 4.1255841 1.5450355
-6.7021933 1.321113 2.5473301
-26.133682 3.2724373 -0.31221163
-22.817062 2.9160335 -1.0149347
-7.2159452 1.3339577 0.49594453
-12.184956 1.8152244 -1.1397407
-12.293614 1.8101372 -1.9716846
-9.2537766 1.4947916 -2.0382016
-7.4077063 1.2993754 -2.2780309
-7.4131651 1.2862699 -2.9754248
-6.2115397 1.1561048 -3.2830286
-5.2300515 1.0482068 -3.6146431
-4.1917391 0.93589699 -3.8720202
-3.3650966 0.84472626 -4.1662755
-2.4495568 0.74582875 -4.386847
-179.2903 19.92017 34.930458
-127.94792 14.347874 23.059311
-85.760353 9.7465963 12.163064
-63.260841 7.332283 8.3590908
-53.387218 6.2595263 6.0168996
-45.658615 5.4198914 4.1877184
-6.2718158 1.31832 3.8554261
-6.4371996 1.3226553 3.2036932
-29.834169 3.7021644 0.5147388
-26.099037 3.2970982 -0.33295208
-22.617268 2.9217038 -1.0116367
-19.589308 2.5955775 -1.5849897
-16.682775 2.2845676 -2.0319414
-8.5083914 1.451884 -1.159906
-7.7217183 1.3598157 -1.6808301
-6.7480378 1.2499534 -2.1181657
-7.0374947 1.2649311 -2.8844335
-6.1913757 1.1687806 -3.2988658
-5.3706479 1.075776 -3.6875615
-4.1596594 0.94603312 -3.8822942
-3.3033061 0.85144782 -4.1634336
-2.4598415 0.75881141 -4.4141417
-179.40027 20.066956 34.936417
-127.81795 14.43312 23.026966
-85.774414 9.8177252 12.141738
-63.14138 7.3738708 8.3319817
-53.320702 6.2998252 5.9929733
-45.510193 5.4462485 4.1655707
-6.0283723 1.3089052 3.8537905
-33.987026 4.1875825 1.4999211
-6.3212938 1.3137699 2.5553966
-25.982113 3.3133881 -0.34440741
-22.597225 2.9455206 -1.033645
-19.461172 2.6063659 -1.5882761
-10.518637 1.6851592 -0.85830998
-13.68081 1.9869311 -2.3238373
-6.8494911 1.2888019 -1.4849604
-7.0724764 1.2973651 -2.2284641
-6.943285 1.2709469 -2.8782084
-6.1630168 1.1806816 -3.3121357
-5.3042865 1.0833876 -3.6867366
-4.1510353 0.95844787 -3.9017148
-3.3118813 0.86492163 -4.1898947
-2.4154534 0.76660734 -4.4173026
-203.8902 22.987688 44.797909
-179.1544 20.183815 34.887138
-131.96643 14.985884 23.530577
-85.660889 9.879571 12.1097
-62.963127 7.4123888 8.3008728
-53.221043 6.3394561 5.9670124
-45.386135 5.477654 4.1415854
-38.942699 4.7695804 2.6757822
-33.806675 4.2046857 1.4851531
-29.693668 3.7512641 0.47615966
-25.868097 3.3315961 -0.35776523
-6.3155904 1.3039408 1.2452548
-19.450771 2.6304901 -1.6128298
-16.564386 2.3174999 -2.059427
-11.440713 1.7819006 -1.8520652
-6.6469293 1.2848426 -1.4557256
-6.5489893 1.2615167 -2.1063972
-6.8703179 1.2799011 -2.8797684
-6.1795044 1.1978921 -3.3417871
-5.2669463 1.094644 -3.6977701
-4.1475487 0.97219026 -3.9247329
-3.2006805 0.86757642 -4.1679707
-2.360981 0.77413452 -4.4174256
-128.35527 14.69078 23.061882
-85.490097 9.9271431 12.076177
-62.916904 7.4586573 8.2781353
-53.014679 6.3622756 5.9416385
-45.398899 5.5185285 4.1191692
-5.6980619 1.3057746 3.8452644
-33.72757 4.2283263 1.4669071
-29.590097 3.7696562 0.46183035
-25.617231 3.3322561 -0.35245326
-22.384691 2.9755838 -1.0536562
-19.456326 2.6535165 -1.6373582
-6.3679104 1.2976795 -0.086367391
-14.449785 2.1047349 -2.5433629
-6.7078304 1.305483 -1.4897377
-6.7783003 1.2988689 -2.1898198
-6.4913669 1.2564754 -2.7854629
-6.2325583 1.2170746 -3.3811228
-5.3765836 1.1187602 -3.7591803
-4.077929 0.9779067 -3.9194009
-3.1097233 0.87063026 -4.1517258
-2.3107665 0.78063345 -4.4167809
-179.68347 20.498255 34.947094
-127.8503 14.730373 22.983082
-85.374146 9.9807777 12.046415
-62.909916 7.509223 8.2569618
-53.100601 6.4162097 5.9213405
-45.386127 5.5568624 4.096808
-38.683361 4.8128099 2.6395025
-33.639877 4.2510762 1.4490633
-29.461847 3.7854321 0.44966367
-5.9227552 1.3055599 1.9112936
-22.286726 2.9898939 -1.0634953
-19.234417 2.6531634 -1.6235278
-16.504862 2.3526423 -2.0946186
-10.021038 1.6718771 -1.5774237
-8.2067604 1.4722559 -1.8842958
-6.574192 1.292769 -2.1532426
-6.6313887 1.2847812 -2.8492916
-6.1662049 1.2244331 -3.3808689
-5.3279085 1.1273156 -3.7637348
-4.0552349 0.98822683 -3.9324563
-3.0888412 0.88049781 -4.1648355
-2.2372668 0.78483832 -4.405766
-179.77068 20.645269 34.949127
-128 14.847464 22.985264
-85.076263 10.018835 12.002315
-62.778645 7.5498128 8.2288151
-53.038685 6.4573674 5.8969102
-45.307999 5.5908537 4.0734034
-5.4607711 1.3110152 3.8341422
-33.497269 4.2699904 1.4332061
-29.352228 3.8049598 0.43424037
-25.565706 3.3818238 -0.39553502
-22.297394 3.017041 -1.0904355
-6.421494 1.3468329 0.53118652
-6.0913582 1.299245 -0.066212974
-14.160425 2.1148174 -2.5271885
-7.0096941 1.3664376 -1.6050199
-6.4556346 1.2960682 -2.1416028
-6.5769277 1.294549 -2.8552718
-6.2949533 1.2522476 -3.4472578
-5.2607145 1.1348583 -3.7630126
-4.1159854 1.0076319 -3.9796436
-3.0964971 0.89394855 -4.191462
-2.1538756 0.78874385 -4.3916793
-180.06856 20.824511 34.982609
-128.8548 15.049187 23.074486
-85.15097 10.101627 11.983087
-62.685844 7.597846 8.2009964
-53.104755 6.515337 5.8730741
-45.164982 5.6204181 4.0491362
-38.596287 4.8811154 2.5920458
-33.396988 4.2953653 1.4131361
-29.269138 3.8290992 0.4148469
-5.6397896 1.3078233 1.9156653
-22.22995 3.0376353 -1.1079072
-19.247015 2.7037826 -1.6780329
-16.351482 2.3820763 -2.1162329
-8.8820114 1.5907197 -1.3661169
-6.230341 1.3030124 -1.4304796
-6.2865443 1.2950094 -2.1170862
-6.2496395 1.2774612 -2.7787383
-5.9936395 1.2376614 -3.3712697
-5.0730963 1.1310985 -3.7199788
-4.0175877 1.0120517 -3.9661243
-3.0938141 0.90716916 -4.2152882
-2.1144915 0.79764456 -4.3987951
-180.05962 20.970528 34.969086
-127.92693 15.054174 22.940573
-85.039055 10.164392 11.950481
-62.615902 7.6484876 8.1739759
-52.911465 6.5452623 5.8447728
-45.029995 5.6507883 4.0247483
-5.2317247 1.3195093 3.8209846
-5.5498185 1.3408327 3.1780357
-29.217901 3.8566682 0.39239419
-25.391581 3.4236953 -0.42937684
-22.081335 3.0496666 -1.1137501
-19.129305 2.7169111 -1.685104
-16.336723 2.4038982 -2.1402395
-14.277183 2.1703393 -2.6071293
-6.116828 1.3075317 -1.4232641
-6.2609849 1.3085599 -2.1327078
-5.9708471 1.2649618 -2.7167356
-5.7009654 1.2236273 -3.2978191
-4.9798918 1.1366997 -3.7111428
-3.9192324 1.0164022 -3.9525506
-3.1449192 0.92582238 -4.2620263
-2.0902922 0.8080492 -4.4128842
-180.33266 21.140717 34.999168
-127.36791 15.093615 22.853771
-85.001991 10.231379 11.924302
-62.554192 7.6969042 8.1484404
-52.879066 6.5899959 5.820343
-44.933884 5.6829224 4.0011907
-38.224529 4.9188128 2.5548434
-33.152172 4.3393931 1.3768123
-29.034403 3.8682468 0.38339269
-5.3574996 1.3096571 1.9201597
-22.146709 3.0828295 -1.1491935
-19.047934 2.7324181 -1.6969467
-16.373508 2.4299173 -2.1732266
-5.7423062 1.2973803 -0.69842172
-8.5017519 1.5712378 -2.0493124
-5.9678531 1.2935286 -2.071867
-5.5690646 1.2248781 -3.2767763
-4.7875094 1.1313133 -3.6646345
-3.9632905 1.0343033 -3.9937978
-3.0742412 0.93158478 -4.2561221
-2.0526996 0.8164205 -4.4196758
-179.70757 21.218367 34.891331
-127.67924 15.236793 22.874531
-84.950897 10.301202 11.895589
-62.378078 7.7360373 8.1166229
-52.716255 6.6233735 5.7922616
-44.885715 5.7228909 3.9754837
-4.9090919 1.3164939 3.8120878
-5.3309479 1.3494955 3.1682162
-28.950006 3.8922555 0.3637633
-25.204868 3.4625361 -0.46072698
-22.126083 3.1085339 -1.1739272
-18.985989 2.7514012 -1.7138556
-5.5985293 1.3118516 -0.042404085
-11.991537 1.9721221 -2.1403
-9.1550112 1.6576283 -2.2397277
-5.7678528 1.2887789 -2.0382147
-5.8756294 1.2861087 -2.7339385
-4.819406 1.1495444 -3.7016482
-3.8880177 1.0409482 -3.9895334
-3.0628622 0.94406104 -4.2768517
-2.0510612 0.82911938 -4.4442658
-181.63745 21.570482 35.17474
-128.16524 15.388564 22.918844
-84.867699 10.359287 11.867267
-62.308228 7.7805405 8.0918064
-52.41819 6.63588 5.7649426
-44.795403 5.7533073 3.953021
-38.018906 4.9722018 2.5124066
-33.088566 4.401145 1.3296422
-4.947618 1.3093579 2.5642076
-5.0786939 1.3104475 1.925283
-22.090273 3.1295657 -1.1935441
-18.940371 2.7693021 -1.7305753
-16.229349 2.4591515 -2.1962223
-5.5052094 1.3028589 -0.68261862
-6.9285111 1.4393158 -1.6924738
-5.7319474 1.2992601 -2.0483701
-5.6901035 1.2809677 -2.6977189
-5.5486612 1.2522783 -3.3171892
-3.8020954 1.0448692 -3.9781907
-2.9712853 0.94688469 -4.2607665
-2.0076895 0.83620918 -4.4472432
-181.65266 21.706219 35.165771
-127.69849 15.432761 22.844282
-84.775139 10.416528 11.838159
-62.413139 7.8447638 8.0742731
-52.360146 6.6750894 5.7411656
-44.656937 5.7783513 3.9311011
-4.6519608 1.3173685 3.8026733
-5.0163865 1.3445309 3.1668804
-28.705978 3.9247127 0.3372522
-25.072275 3.5021749 -0.49430546
-21.989927 3.143661 -1.2037668
-5.242413 1.3161331 0.63317508
-16.045229 2.4604406 -2.1837575
-13.462294 2.1654131 -2.5229897
-10.179776 1.7991034 -2.5466554
-5.7905898 1.3197089 -2.085506
-5.5913634 1.2847582 -2.6884544
-5.4116139 1.2519408 -3.2930288
-4.495348 1.1427461 -3.6276274
-2.9795609 0.95987517 -4.2872324
-1.9718374 0.84405106 -4.4537206
-181.24504 21.810493 35.090794
-127.63643 15.535349 22.81797
-84.909851 10.508143 11.821817
-62.361233 7.8982449 8.0471745
-52.267742 6.7162166 5.7138963
-44.574261 5.8147221 3.9053032
-37.75489 5.0191836 2.4717567
-32.846638 4.4434695 1.2938881
-4.7014823 1.313133 2.5614674
-4.7926202 1.3099411 1.9315225
-21.967705 3.1693654 -1.2287878
-18.791399 2.80179 -1.75749
-16.092039 2.489099 -2.22103
-5.1812148 1.2986387 -0.64664614
-11.694528 1.9800024 -2.9626026
-5.6303 1.3188648 -2.0630662
-5.4636774 1.2871906 -2.6727479
-5.2771473 1.2534983 -3.2724495
-4.7827597 1.1876639 -3.7595727
-3.7256021 1.0640287 -3.9964888
-1.8705029 0.84662151 -4.4331579
-181.56583 21.991039 35.127552
-130.15456 15.930279 23.11315
-84.856651 10.574592 11.793629
-62.349323 7.9531064 8.0229216
-52.191071 6.7564235 5.6880875
-44.403011 5.8386307 3.8821287
-4.3712006 1.3178749 3.7925196
-32.693027 4.4609718 1.2779963
-28.635696 3.9818151 0.2893995
-24.882561 3.5406859 -0.5261994
-21.89382 3.1879191 -1.2447567
-4.9781446 1.3189569 0.64502126
-16.022945 2.5040233 -2.2335129
-13.989709 2.2645562 -2.6981754
-7.948194 1.5970958 -2.0211375
-5.5124211 1.3214966 -2.0513051
-5.2918687 1.2839526 -2.6418147
-5.3636999 1.2773999 -3.3261225
-4.7070961 1.1940632 -3.7561412
-3.714082 1.0763975 -4.0164804
-2.9191363 0.98032373 -4.3121548
-181.34744 22.118181 35.081234
-128.15852 15.810734 22.846178
-84.813141 10.646564 11.764522
-62.397797 8.018404 7.9995718
-52.048832 6.7921023 5.6597214
-44.319359 5.8749242 3.8562019
-37.650082 5.086215 2.422858
-32.5089 4.4770393 1.2625464
-28.437271 3.9932096 0.27993968
-4.5205007 1.3113683 1.935425
-21.735239 3.1986997 -1.249781
-18.779781 2.8507898 -1.8107017
-4.9970274 1.3235376 -0.010790919
-4.8397179 1.2927995 -0.60730994
-6.2225933 1.428566 -1.5982215
-5.164247 1.3001888 -1.974686
-5.3676386 1.3078694 -2.690099
-5.2446232 1.2804998 -3.3109558
-4.6287222 1.2009842 -3.7532005
-3.7227783 1.0917282 -4.046206
-2.8301489 0.98482019 -4.3002219
-1.7914937 0.86363244 -4.4474325
-127.54241 15.843881 22.751728
-84.693329 10.7058 11.731347
-62.430649 8.0789433 7.9767365
-51.851414 6.8185744 5.6320572
-44.178772 5.9022942 3.8323262
-4.1468468 1.3242589 3.7802098
-32.338924 4.4925461 1.2476995
-28.316175 4.0112872 0.26463491
-24.4848 3.5559323 -0.53289771
-21.684628 3.2198002 -1.269452
-18.585014 2.8538361 -1.8033042
-15.94314 2.5416055 -2.272321
-13.808549 2.288028 -2.7113266
-11.071448 1.9714086 -2.8811078
-5.5168729 1.3533397 -2.0982313
-5.1569991 1.3002884 -2.6467948
-4.6705537 1.2340243 -3.1375315
-4.4988966 1.2015522 -3.7296398
-3.748935 1.1081638 -4.0817323
-2.8273678 0.9975419 -4.3240657
-1.7755897 0.8742367 -4.4648824
-183.70749 22.687443 35.415642
-84.666901 10.776009 11.704471
-62.351326 8.1268234 7.9491138
-51.654003 6.8449693 5.6043463
-43.887154 5.9123302 3.8105552
-3.8458519 1.3053143 3.7822771
-32.279896 4.5205603 1.2251732
-28.186832 4.028398 0.25003219
-4.2518582 1.3117979 1.940003
-21.633522 3.2408936 -1.2891643
-18.675249 2.8883951 -1.8465936
-15.888861 2.5582025 -2.2882249
-4.6281719 1.2996975 -0.59665555
-7.7638268 1.6288316 -2.0440142
-5.7739439 1.3966078 -2.195025
-4.9467955 1.2925386 -2.603411
-4.6869836 1.2503371 -3.1671455
-4.5540924 1.2217782 -3.7752573
-3.7210662 1.1189444 -4.0957222
-2.8166671 1.0094659 -4.3446722
-1.7670116 0.88563108 -4.485868
-183.5208 22.821568 35.373718
-128.59032 16.185484 22.84383
-62.205738 8.1704063 7.9172854
-51.69952 6.902441 5.5780816
-43.69067 5.9356718 3.7858696
-3.7882922 1.3148673 3.7736402
-3.9196603 1.3167777 3.1687558
-4.0946536 1.3235068 2.5528662
-24.459303 3.6126664 -0.58575845
-21.537584 3.2585566 -1.3038784
-18.507345 2.8957613 -1.8457272
-15.830081 2.5756586 -2.3049424
-13.163302 2.2600138 -2.6161175
-9.0856628 1.7922591 -2.4151213
-5.4261026 1.3750236 -2.1182981
-4.8119674 1.2936436 -2.5851367
-4.7775178 1.275612 -3.2241466
-4.2525053 1.2046136 -3.688602
-3.6903896 1.1302544 -4.1102195
-2.7501347 1.0162717 -4.3426881
-1.6352589 0.88478696 -4.4513664
-183.40352 22.95569 35.343002
-127.77478 16.195305 22.724449
-84.321465 10.887114 11.62877
-51.563568 6.936048 5.5508528
-43.699162 5.980144 3.7595856
-37.066246 5.175982 2.3402901
-32.19313 4.582428 1.1758195
-27.961121 4.0681214 0.21587418
-3.949573 1.3088056 1.9480773
-21.359417 3.2653244 -1.3045802
-18.556656 2.9260008 -1.8822149
-15.861594 2.6018927 -2.3388808
-4.4141064 1.3068795 -0.58645689
-7.7327418 1.6604213 -2.0843093
-5.9071779 1.4433671 -2.2810872
-4.8505626 1.3127416 -2.6207972
-4.6926389 1.2811135 -3.2190945
-4.1231623 1.2049052 -3.6649539
-3.6849105 1.1434827 -4.1335511
-2.6708102 1.0209063 -4.3336787
-1.6714629 0.90093863 -4.493412
-183.60699 23.11153 35.362518
-127.78223 16.290527 22.708933
-84.270363 10.946349 11.602722
-61.819668 8.2330179 7.8552995
-43.60421 6.0075979 3.7378097
-36.858833 5.1860104 2.3257291
-32.089722 4.6014032 1.1590897
-27.881933 4.0871425 0.19937664
-24.281483 3.6472487 -0.61545551
-3.8857133 1.3014854 1.3419569
-18.394175 2.9295151 -1.8775113
-4.4559069 1.3386766 0.01039023
-13.667048 2.3555503 -2.7857659
-8.3327818 1.7422771 -2.2635221
-6.2985935 1.5005925 -2.4160116
-4.7471857 1.3145679 -2.6084635
-4.6131878 1.2854258 -3.2131083
-4.2901793 1.2356434 -3.750247
-3.5777578 1.1441272 -4.1126585
-2.588798 1.0236609 -4.3205333
-1.6593322 0.91055298 -4.510181
-183.43654 23.258009 35.322006
-129.6765 16.639265 22.921598
-84.179909 11.018553 11.567802
-61.840843 8.2999268 7.8281145
-51.273762 7.0012689 5.4958262
-36.827232 5.2256265 2.2971079
-31.921047 4.6210384 1.1405247
-27.724066 4.1045756 0.18400176
-24.007046 3.6483231 -0.61197186
-21.050472 3.2838929 -1.3130956
-18.386177 2.9563243 -1.9073468
-15.671962 2.6261625 -2.3548496
-4.1093574 1.3026363 -0.55353373
-7.119761 1.6260155 -1.9697887
-8.0480623 1.7134496 -2.9554653
-4.6328273 1.3186116 -2.598114
-4.5074601 1.2902597 -3.2036762
-4.0024071 1.220259 -3.6696703
-3.5362921 1.1550997 -4.1246281
-2.5800087 1.0373573 -4.3454146
-1.6601335 0.92451012 -4.5391884
-183.75513 23.447071 35.357224
-127.96715 16.540897 22.691751
-83.958481 11.066509 11.526893
-61.928551 8.3682165 7.8063293
-51.276203 7.0514503 5.4697804
-43.247021 6.0583553 3.6871383
-3.3220453 1.3083067 3.1638205
-27.656101 4.1286535 0.16295739
-24.049597 3.6824293 -0.64529794
-21.060564 3.3119841 -1.3428065
-18.277025 2.9687316 -1.9157294
-15.514418 2.6310959 -2.3497777
-13.588078 2.3917441 -2.8260899
-11.40693 2.1259892 -3.1323643
-6.1759024 1.520972 -2.4308424
-4.4471097 1.3128493 -2.561929
-4.1236286 1.2624834 -3.0936756
-3.9647675 1.2304103 -3.6807103
-3.5528729 1.1707909 -4.1574063
-2.5306251 1.0451376 -4.349669
-1.6727134 0.93833703 -4.5709271
-136.22473 17.866718 32.572853
-183.20468 23.539454 35.259537
-127.63838 16.615633 22.631021
-83.82383 11.129428 11.490179
-61.824333 8.4173241 7.7753525
-51.245502 7.1007113 5.4417028
-43.189167 6.0979939 3.6597283
-31.860556 4.6864891 1.0880092
-3.5484569 1.337495 2.539881
-23.858831 3.6912611 -0.65080184
-3.5174251 1.3067875 1.3489673
-18.139748 2.9793129 -1.9206676
-15.570958 2.6617956 -2.3913898
-13.59459 2.4151468 -2.8574958
-4.9578199 1.4155678 -1.4420725
-8.7151031 1.824386 -3.2058389
-4.3819175 1.3212972 -2.5659435
-4.1513267 1.2809677 -3.1294005
-3.8557756 1.2335026 -3.6661997
-3.475657 1.1770523 -4.1534457
-2.501179 1.0558645 -4.364326
-1.6154345 0.94536555 -4.5715585
-136.05782 17.962936 32.542694
-183.23051 23.694141 35.250057
-128.21947 16.795948 22.683226
-83.391418 11.151756 11.435064
-61.713917 8.4623642 7.7454476
-51.043255 7.1266465 5.4131184
-43.06781 6.1276116 3.634706
-36.629215 5.3215771 2.2225091
-27.317389 4.1549106 0.13910924
-23.814123 3.7153389 -0.67336041
-20.855038 3.3438346 -1.3694118
-18.131609 3.0033295 -1.9476709
-15.506402 2.6773643 -2.4061489
-13.488167 2.4244387 -2.8604791
-9.2531834 1.9210968 -2.6135516
-7.54949 1.7100811 -2.8876791
-4.0740213 1.3014624 -2.4898112
-4.00565 1.2792721 -3.1027489
-3.7723095 1.2385129 -3.6598907
-3.4689267 1.1902498 -4.1770496
-2.4664743 1.0652564 -4.3752637
-1.6125388 0.95758092 -4.5963755
-133.50635 17.862959 36.517826
-135.6756 18.032455 32.47364
-131.19585 17.274054 23.029234
-82.626892 11.133187 11.358006
-61.517559 8.4969692 7.7121639
-50.902462 7.1600242 5.3850141
-43.000694 6.1637363 3.6086709
-36.631973 5.3611622 2.1948075
-31.468115 4.7107439 1.0606459
-23.792225 3.7421868 -0.69903862
-3.2288208 1.3029664 1.3624668
-18.161737 3.0319037 -1.9819549
-15.457085 2.6947052 -2.4242051
-13.420285 2.4381199 -2.8727431
-5.3379574 1.4902875 -1.5882282
-7.241405 1.6921339 -2.8221567
-4.2032523 1.3308731 -2.5555892
-3.9135914 1.2834692 -3.094944
-3.7872553 1.2545036 -3.6914401
-3.3940825 1.1959201 -4.1726618
-2.4315755 1.0746328 -4.3862367
-1.4979055 0.95754254 -4.5684981
-133.08093 17.925953 36.438965
-134.63295 18.018873 32.285263
-183.54535 24.038507 35.270691
-127.87269 16.972811 22.601471
-83.043083 11.259255 11.35884
-61.034035 8.4964323 7.6679635
-50.76918 7.1942453 5.3569326
-42.839214 6.1885662 3.5841177
-36.438911 5.3773675 2.1757901
-2.795975 1.3069562 3.1539474
-23.722961 3.7635024 -0.7187925
-20.692322 3.3790383 -1.4014285
-18.167803 3.0578003 -2.0120606
-15.415149 2.7129443 -2.4439769
-13.274955 2.4428155 -2.8663697
-9.6595421 2.0050471 -2.7757874
-5.4311981 1.5014288 -2.3083475
-3.8657119 1.3072555 -2.4693317
-3.62394 1.2651997 -3.0168498
-3.7262194 1.2620077 -3.6938939
-3.3417323 1.2040612 -4.1776419
-2.4039695 1.0848224 -4.4005609
-1.5316423 0.97384 -4.610991
-133.57999 18.106501 36.554325
-134.12154 18.07151 32.192867
-183.6729 24.208385 35.276253
-127.59321 17.048313 22.547405
-82.486626 11.265777 11.295509
-60.937565 8.5430851 7.6383872
-50.565475 7.2198734 5.3280845
-42.716396 6.2180386 3.5588787
-36.471027 5.4207277 2.1463418
-31.292871 4.760695 1.0171249
-27.162868 4.23316 0.069463722
-20.536839 3.3878396 -1.4058933
-18.002947 3.0636392 -2.0106437
-15.326458 2.7257273 -2.453903
-13.260709 2.4627039 -2.8917613
-9.6917019 2.0277054 -2.8115623
-4.5925016 1.4205091 -2.08165
-3.7273681 1.3061047 -2.4478338
-3.6384828 1.2813131 -3.0468049
-3.6198366 1.2643404 -3.6789107
-3.3717618 1.2214789 -4.2169461
-2.3463256 1.0916744 -4.4016385
-1.4540291 0.97782236 -4.6007195
-132.46918 18.089159 36.332203
-133.39967 18.103968 32.062447
-183.00191 24.287035 35.159882
-131.47339 17.654789 23.001255
-81.357079 11.2047 11.193183
-60.928894 8.6043148 7.6102395
-50.313625 7.2425089 5.2972069
-42.553753 6.2452774 3.5325439
-36.463146 5.4618473 2.1166708
-31.182392 4.785049 0.99516362
-2.9734628 1.3457894 2.530458
-23.523516 3.8006628 -0.75239682
-17.926146 3.0812948 -2.0273302
-3.0420694 1.2987615 0.15751921
-13.218882 2.4806898 -2.9123697
-5.1910763 1.5219772 -1.6182427
-6.2659926 1.6312332 -2.6091554
-3.4420226 1.2887176 -2.379251
-3.6044626 1.2927843 -3.0610976
-3.5032842 1.2662816 -3.661479
-3.3163154 1.2301265 -4.2224855
-2.330689 1.1040127 -4.4231372
-1.3591995 0.98057693 -4.5838408
-134.04478 18.402985 36.673454
-132.84857 18.14402 31.962883
-182.90022 24.419855 35.131367
-128.10143 17.334902 22.569582
-80.563995 11.175696 11.116302
-60.779034 8.6411457 7.5798302
-50.126614 7.2669854 5.2700415
-42.507519 6.2815785 3.507232
-36.376869 5.4887571 2.0940325
-31.146423 4.8142986 0.97084916
-2.7740958 1.3358452 2.5383582
-23.404472 3.814275 -0.76428145
-20.410986 3.4273863 -1.4443982
-15.179178 2.7548003 -2.4805117
-13.069618 2.4834826 -2.9034679
-11.161183 2.2384834 -3.2668886
-3.6486096 1.3411165 -1.8446158
-3.5499628 1.3149669 -2.4372518
-3.4925957 1.2935746 -3.0446284
-3.4523244 1.2739623 -3.6663995
-3.2138076 1.2317377 -4.2052317
-2.2827079 1.1111563 -4.4271379
-1.3061298 0.98647743 -4.5837107
-135.79092 18.755943 37.052189
-132.62988 18.240393 31.923372
-183.61417 24.676134 35.224529
-127.79388 17.414547 22.510447
-80.257408 11.216056 11.06796
-60.560699 8.6765184 7.5437179
-50.089142 7.3161697 5.2407403
-42.335876 6.3077435 3.4808419
-36.21349 5.5109015 2.0715654
-31.088806 4.8452134 0.94457692
-2.7624226 1.3503779 2.5252454
-2.5545027 1.3112226 1.9662654
-20.388517 3.4537122 -1.4720848
-17.880835 3.126673 -2.0781021
-13.22618 2.5250628 -2.9729769
-6.0655193 1.6574441 -1.9038376
-7.8245053 1.8477273 -3.131758
-3.2579098 1.2964059 -2.3660231
-3.4356802 1.3023677 -3.0508626
-3.3883452 1.2818195 -3.6694317
-3.1581674 1.2403008 -4.2108064
-2.2295001 1.1192667 -4.4320822
-1.2628272 0.99494839 -4.5915341
-135.94577 18.897587 37.095886
-184.10033 24.895737 35.283833
-128.1787 17.576525 22.536905
-79.079948 11.141244 10.964981
-60.505611 8.7288485 7.5149503
-49.883507 7.341414 5.2115426
-42.264404 6.3437147 3.4540198
-36.118504 5.5391612 2.047354
-30.90637 4.8586717 0.9294799
-26.824444 4.3241081 -0.013639111
-23.256903 3.8576889 -0.80542433
-20.332098 3.474391 -1.4928049
-17.700125 3.1303561 -2.0738335
-14.949902 2.775387 -2.4914012
-13.095351 2.5313163 -2.9705093
-7.6157527 1.8408754 -3.0960197
-3.1432307 1.2974955 -2.3518722
-3.3136766 1.3026824 -3.0321293
-3.2671349 1.2821647 -3.6485541
-2.9118018 1.2260137 -4.134562
-2.1713729 1.1260036 -4.4332471
-1.1557634 0.9954012 -4.5671487
-184.1745 25.063391 35.280605
-128.453 17.725382 22.549644
-77.91378 11.066509 10.863137
-60.281548 8.7600002 7.4799943
-49.807812 7.3830018 5.1832428
-42.168846 6.376801 3.4275146
-36.08416 5.575048 2.02
-30.708502 4.8701048 0.91550064
-26.659626 4.3365078 -0.025886981
-23.116207 3.8703339 -0.81636202
-20.236933 3.4903662 -1.5073782
-17.703245 3.1562679 -2.1045189
-14.974795 2.8017824 -2.5265832
-2.9083271 1.3277271 -0.48380592
-5.2292295 1.5909959 -1.7222439
-6.0907278 1.6772866 -2.6591599
-3.2293777 1.3073246 -3.0269711
-3.1983049 1.2885257 -3.6481752
-2.9702766 1.2468383 -4.1866379
-2.1720614 1.1395158 -4.4611325
-1.15127 1.0075322 -4.5922546
-135.64835 18.876333 27.932007
-128.36029 17.820757 22.518698
-77.985748 11.14508 10.842509
-60.174515 8.802433 7.4507008
-49.686855 7.4159188 5.1561027
-42.096611 6.4101787 3.4020786
-36.117733 5.6172261 1.9907675
-1.951195 1.3077773 3.1340194
-26.615606 4.3619208 -0.049178772
-23.12631 3.8998058 -0.84588122
-20.116028 3.5015457 -1.5160749
-17.657042 3.174752 -2.1242032
-2.4588578 1.301355 0.19243635
-12.96716 2.5584095 -2.9969573
-11.09938 2.3123744 -3.3681324
-6.7650471 1.7737056 -2.8898792
-2.9395666 1.3015928 -2.3305538
-2.8939443 1.2663354 -3.553494
-2.8754122 1.2490634 -4.1724801
-2.2412293 1.1602253 -4.5186596
-1.1343496 1.0175226 -4.6098876
-131.65593 18.703154 36.227051
-183.82443 25.345222 35.197689
-131.56508 18.36792 22.88468
-77.23542 11.130885 10.764491
-60.169834 8.868804 7.4199882
-49.513889 7.4512911 5.1235194
-41.944969 6.441576 3.3731575
-36.081619 5.6579928 1.9595673
-30.741203 4.948638 0.85209984
-2.0713382 1.3257475 2.5431983
-23.03484 3.9220886 -0.86726558
-2.1699798 1.3102942 1.3864781
-17.504538 3.184727 -2.1290815
-14.858232 2.8360193 -2.5628862
-12.842998 2.5678859 -2.9998112
-10.904965 2.3117607 -3.3478107
-4.4203672 1.5108819 -2.200875
-2.8122189 1.3026057 -2.314786
-2.8868904 1.2814436 -3.5803969
-2.9422956 1.2727269 -4.231945
-2.1111391 1.1602253 -4.4908128
-1.0952767 1.0272212 -4.6218052
-133.77657 18.996262 32.130543
-183.58051 25.473053 35.146137
-131.25067 18.444418 22.82478
-76.498795 11.108941 10.690711
-60.140232 8.9251242 7.3913946
-49.31382 7.4771495 5.0939941
-41.786671 6.4667821 3.3476539
-35.915012 5.6775208 1.9382799
-30.580379 4.9646978 0.83490509
-26.425095 4.4078288 -0.092410363
-1.9190469 1.3076009 1.9769294
-20.028193 3.5494177 -1.5660985
-17.513632 3.2115982 -2.1614494
-14.752357 2.8466156 -2.5698204
-2.5361786 1.3276428 -0.45329431
-10.831654 2.3233161 -3.3575783
-4.7830486 1.5705475 -2.3373225
-2.7729154 1.3123888 -2.3257449
-2.7426879 1.2938124 -2.9274096
-2.6971388 1.2579948 -4.1554813
-2.1328793 1.1763386 -4.5288987
-1.0390627 1.0334287 -4.6222444
-133.73242 19.22438 36.687141
-183.21448 25.585155 35.076008
-128.3951 18.184689 22.456629
-76.306068 11.157357 10.651463
-59.859592 8.9491405 7.3539815
-49.007771 7.4891963 5.0638995
-41.733952 6.5055923 3.3195984
-35.846962 5.7095861 1.9118854
-30.510515 4.9922748 0.81042141
-26.297262 4.4247398 -0.10888447
-22.736313 3.9450305 -0.88742757
-19.901291 3.5614336 -1.5758787
-2.1165919 1.319118 0.78925192
-14.729567 2.8674634 -2.595278
-12.716803 2.5964677 -3.0291367
-2.4122493 1.312642 -1.0321592
-2.7515063 1.3392749 -1.7349356
-2.7781875 1.3275737 -2.3519452
-2.6514044 1.2972498 -2.9194646
-2.6977696 1.2875434 -3.5589743
-2.5482368 1.2544345 -4.1197433
-1.8473667 1.1562506 -4.426477
-1.0045383 1.0421529 -4.6333404
-131.22969 19.00923 36.171047
-183.81758 25.827085 35.152008
-128.39714 18.301317 22.435278
-75.864143 11.173011 10.59639
-59.782318 8.9995527 7.3234439
-48.73172 7.505002 5.033937
-41.650101 6.5405045 3.2920642
-35.649551 5.7250628 1.8920817
-30.402117 5.0149789 0.78883618
-26.176809 4.4425492 -0.12626405
-22.69301 3.9698143 -0.91211313
-19.842445 3.581959 -1.5969895
-17.280048 3.2341719 -2.1781189
-14.766649 2.8958459 -2.6343079
-2.2381051 1.3202614 -0.41916505
-5.6313815 1.7238082 -1.9580265
-3.2352295 1.4132274 -1.9082491
-2.5446198 1.3137623 -2.2972536
-2.5824382 1.3033115 -2.9196818
-2.5848439 1.2882801 -3.5408871
-2.4436479 1.2560227 -4.1028657
-1.8834879 1.1740366 -4.4712543
-0.92639333 1.0457438 -4.6231647
-131.67796 19.192308 36.277046
-132.70343 19.218702 31.936661
-183.80676 25.98822 35.135235
-131.62935 18.851166 22.804403
-75.452858 11.192423 10.543329
-59.628998 9.0400658 7.2901697
-48.568668 7.5353875 5.0044789
-41.414463 6.555697 3.2680225
-35.557793 5.7541199 1.8666905
-1.3539028 1.3075932 3.1192052
-26.139214 4.470962 -0.15282567
-1.6341684 1.3157573 1.9713337
-19.775579 3.6015174 -1.6169782
-1.863741 1.3167853 0.80316097
-1.8485582 1.3006029 0.23165368
-12.611994 2.6277583 -3.064364
-10.7455 2.374449 -3.4251604
-6.9111042 1.881151 -3.0764689
-2.386097 1.3088669 -2.2677782
-2.5060029 1.3084295 -2.9172006
-2.582444 1.302291 -3.5669959
-2.1708207 1.2373083 -4.0134897
-1.7445332 1.1710134 -4.4357204
-0.94941622 1.0612817 -4.6627345
-132.01735 19.369247 36.360893
-133.51729 19.346228 27.540573
-128.18439 18.514242 22.364449
-74.12394 11.093517 10.431563
-59.590893 9.0995312 7.2589431
-48.650486 7.6011453 4.9741507
-41.275688 6.5861592 3.2398531
-35.329414 5.7678623 1.8465799
-30.094179 5.050766 0.75101733
-26.02672 4.4917865 -0.1731497
-22.523506 4.0107651 -0.9524076
-1.553818 1.3070713 1.4064871
-17.191628 3.2764733 -2.2253428
-14.631017 2.9280646 -2.6679583
-12.506107 2.6380479 -3.0704417
-4.8833675 1.6655853 -1.7985929
-4.1991868 1.5639256 -2.2591748
-2.3289752 1.3171538 -2.2742405
-2.4563627 1.3176295 -2.9261689
-2.4961703 1.3070023 -3.5611951
-2.1298392 1.2471297 -4.025372
-1.8209206 1.1945313 -4.5012317
-0.84696859 1.0626936 -4.6423731
-129.83588 19.178112 35.910843
-185.17935 26.493027 35.312244
-127.96983 18.589285 22.319016
-74.196236 11.16787 10.411852
-59.495186 9.1408892 7.2306018
-48.52784 7.6308398 4.9480386
-41.20731 6.6177716 3.215162
-35.176361 5.7841296 1.8277398
-1.1798879 1.3136395 3.1095545
-25.827311 4.4954309 -0.17845243
-22.48262 4.032434 -0.97427487
-19.555639 3.6280048 -1.6409471
-17.140205 3.2929628 -2.2431111
-1.5926912 1.2964903 0.25249645
-12.315629 2.6336896 -3.0495028
-10.525949 2.3872628 -3.4232411
-6.3085322 1.8407602 -2.9429672
-3.3753741 1.4595189 -2.6548107
-2.2306249 1.3026134 -2.8650136
-2.366864 1.303864 -3.5332532
-2.0238967 1.2465926 -4.0042605
-1.7958788 1.2035547 -4.5150928
-0.83839178 1.0730138 -4.6633577
-128.80626 19.172588 35.706486
-185.1349 26.672729 35.288067
-128.59529 18.806969 22.369425
-73.491226 11.155132 10.337593
-59.249073 9.1764917 7.1905656
-48.313019 7.6606874 4.9145136
-41.125763 6.6585922 3.1834235
-34.977657 5.8039565 1.8041788
-29.814613 5.0878801 0.71241754
-25.670561 4.5123429 -0.19576846
-22.237959 4.0349355 -0.97503453
-19.402084 3.6397216 -1.6503028
-16.97876 3.301518 -2.2467475
-1.4731823 1.2974571 0.25834316
-12.384582 2.6672974 -3.1022115
-10.421126 2.3972454 -3.428318
-3.117234 1.4602784 -1.9699624
-3.2828403 1.4650971 -2.6521409
-2.1856067 1.3131024 -2.8772435
-2.1025341 1.2873517 -3.4570158
-1.921823 1.2497309 -3.9914067
-1.8250412 1.2224073 -4.5611744
-0.8913309 1.0938382 -4.7218647
-129.95212 19.455185 35.96014
-134.60924 19.986158 32.280979
-185.33046 26.866627 35.301723
-128.51436 18.915466 22.337082
-72.955742 11.155975 10.277145
-59.166 9.2269039 7.1589322
-48.333134 7.7159338 4.884994
-41.046059 6.6943483 3.1551611
-34.928963 5.8387308 1.7759938
-29.719326 5.112257 0.68924743
-1.0491499 1.3137777 2.5452027
-22.237324 4.0654664 -1.0064936
-19.333912 3.6591113 -1.6705261
-16.931868 3.3216596 -2.2694147
-14.584871 2.9945436 -2.7525597
-12.207979 2.6671667 -3.0884826
-10.37605 2.4123075 -3.4468458
-7.8662858 2.0744267 -3.4950502
-3.1961608 1.4695474 -2.6484134
-1.8380338 1.2842058 -2.7729349
-1.9465785 1.2822646 -3.4210267
-1.8977652 1.2607416 -4.0091386
-1.7004672 1.2209572 -4.532331
-0.84122521 1.1007748 -4.7260108
-133.8622 20.016466 32.146015
-185.58414 27.079784 35.323025
-127.95424 18.96534 22.245604
-72.696091 11.198255 10.231997
-58.974323 9.2662659 7.1221113
-48.171528 7.7498484 4.8531766
-40.874706 6.7206669 3.1272511
-34.953506 5.8858733 1.7416047
-29.668825 5.1447988 0.66030639
-25.547062 4.5651636 -0.24666232
-22.095575 4.0794315 -1.020051
-19.312216 3.6862736 -1.7006935
-16.715498 3.3214064 -2.2602518
-1.3098292 1.3062733 0.25631568
-12.198173 2.689595 -3.1195979
-10.282266 2.4224131 -3.4534059
-7.513763 2.0496655 -3.4155483
-1.8209552 1.312358 -2.1993957
-1.7668898 1.2903442 -2.7735455
-1.7737695 1.2757424 -3.3795567
-1.8417958 1.2686527 -4.0148201
-1.6812993 1.2331572 -4.5544662
-0.77424973 1.1063913 -4.7235346
-128.65427 19.412292 31.205101
-129.72037 19.330959 22.43469
-72.345619 11.223729 10.182825
-58.87439 9.3146057 7.0896707
-48.018642 7.7819982 4.8228874
-40.711086 6.745297 3.1007874
-34.820938 5.9097142 1.7176535
-29.65427 5.1800718 0.62995398
-25.439072 4.5845537 -0.26617274
-21.966894 4.0932503 -1.0336304
-0.92775202 1.299644 1.4298986
-16.675472 3.3424306 -2.2845361
-14.511995 3.0352874 -2.8023107
-1.2473378 1.2981554 -0.31140155
-1.3318861 1.2944262 -0.90161771
-1.5223122 1.3038716 -1.5384418
-1.7080169 1.3124272 -2.1849315
-1.6911328 1.2950324 -2.770942
-1.8290752 1.2967895 -3.4294429
-1.8244635 1.280538 -4.0358152
-1.6573069 1.2439916 -4.5728064
-0.73113966 1.1141335 -4.7313232
-128.61604 19.52309 31.198195
-184.72824 27.288797 35.163101
-130.29251 19.526083 22.481234
-72.310478 11.28826 10.154373
-58.629879 9.3396206 7.0543547
-47.763885 7.7971139 4.7941055
-40.541576 6.7662444 3.0763538
-34.740143 5.9381042 1.6924815
-29.541828 5.2001438 0.60963911
-25.292513 4.5967917 -0.27945548
-21.970282 4.1227379 -1.0644093
-19.164055 3.7220528 -1.7379409
-16.639982 3.362572 -2.3079543
-1.0706123 1.3032579 0.27406955
-1.232896 1.309849 -0.32706293
-1.2732282 1.3003651 -0.90526086
-1.4488266 1.3079768 -1.536999
-1.7003407 1.3249878 -2.2056582
-1.6035664 1.2973421 -2.7622776
-1.7199252 1.2964288 -3.4106736
-1.7376294 1.2829322 -4.0246849
-1.5212455 1.2401091 -4.5367007
-0.72592187 1.1257963 -4.7565598
-127.30438 19.468077 30.96122
-184.84384 27.485378 35.16317
-128.03218 19.339247 22.185612
-72.312141 11.366907 10.124568
-58.221855 9.3492117 7.0105057
-47.54882 7.8237395 4.7618709
-40.258072 6.7771401 3.0513811
-34.583702 5.9612222 1.6677431
-29.348219 5.2136564 0.59247494
-25.214643 4.6221743 -0.30448034
-21.783157 4.1305718 -1.0716846
-0.79707623 1.3113912 1.4194371
-0.95891374 1.3184735 0.83832556
-1.0284008 1.3130332 0.26339442
-1.1021146 1.3080842 -0.31482187
-1.2531368 1.3129719 -0.92280042
-1.4504508 1.3234072 -1.5624288
-1.5263143 1.3179594 -2.1712203
-1.43066 1.2903825 -2.7242551
-1.6488117 1.30246 -3.4106596
-1.5519685 1.2744763 -3.9732459
-1.3658203 1.2352903 -4.4948053
-0.70111483 1.1366154 -4.7756186
-126.90376 19.527235 30.88884
-185.07487 27.679428 35.182381
-128.34554 19.498537 22.200926
-72.046997 11.399902 10.081953
-58.043522 9.383049 6.97719
-47.647327 7.8874259 4.7332711
-40.13942 6.8049936 3.0253229
-34.346603 5.9683433 1.6513913
-29.102077 5.2155056 0.58368421
-0.47959232 1.3110614 2.5411446
-0.56583399 1.3084141 1.9857697
-0.70109826 1.3122814 1.4204839
-0.88502371 1.3223791 0.83636081
-0.87360197 1.3062351 0.28115708
-1.0653176 1.3168391 -0.32475668
-1.1502111 1.3131255 -0.91362429
-1.3256608 1.3208137 -1.5445795
-1.4456432 1.3210899 -2.166455
-1.3361101 1.2916179 -2.7128036
-1.5831275 1.307478 -3.4097126
-1.4438977 1.273993 -3.9525189
-1.2517304 1.2339016 -4.4687357
-0.55391395 1.130615 -4.729331
-185.0248 27.864885 35.156277
-129.06343 19.738398 22.260078
-71.65168 11.427678 10.026489
-57.887623 9.431159 6.9390683
-47.523243 7.929934 4.6988955
-40.060081 6.846581 2.99246
-34.130325 5.9855385 1.6281788
-0.26441514 1.312243 3.0847905
-0.41972756 1.3192638 2.5325203
-0.47652498 1.3126266 1.9817337
-0.62645239 1.3185195 1.4148575
-0.90591007 1.3414695 0.8117438
-0.78448999 1.3105396 0.28030083
-0.98338139 1.3221872 -0.32650787
-0.97335613 1.3060048 -0.8866995
-8.209547 2.2359357 -3.7965376
-4.3250337 1.7109251 -3.2117221
-1.2478917 1.2960913 -2.7083538
-1.3581879 1.2945566 -3.3477461
-1.3421146 1.2766939 -3.9396124
-1.0871753 1.2284383 -4.423821
-0.44875666 1.1320653 -4.7094588
-185.06207 28.023026 35.147102
-128.16795 19.720211 22.132021
-71.370399 11.453767 9.9845304
-58.040943 9.507966 6.9169416
-47.357769 7.9541807 4.6716676
-39.949165 6.8728232 2.9677999
-34.166153 6.0275712 1.5975914
-0.17882179 1.3134015 3.0812113
-0.26038641 1.3104092 2.538887
-0.53071672 1.3328604 1.9601333
-0.60699254 1.3287477 1.403482
-0.81990886 1.3428583 0.81321162
-0.6770674 1.3089436 0.28837827
-11.813264 2.773576 -3.2119567
-9.795887 2.4836895 -3.5031228
-8.3200293 2.2677712 -3.8610818
-4.6680517 1.770322 -3.3590112
-1.0985436 1.2892547 -2.6742201
-1.1448511 1.279556 -3.2836359
-1.3012793 1.2838144 -3.94699
-1.0045739 1.2300113 -4.4107342
-0.43140155 1.1414417 -4.7271714
-185.03783 28.214239 35.124573
-131.13606 20.286556 22.458338
-70.952835 11.477937 9.9276667
-57.758213 9.5385809 6.874722
-47.151165 7.985333 4.6370082
-39.750637 6.8979902 2.9380767
-34.05875 6.0599127 1.5676128
-0.21429463 1.3346865 3.0638502
-0.20056905 1.3184966 2.5302708
-0.42639634 1.3350087 1.958196
-0.46608099 1.3259315 1.4095101
-0.5103696 1.3173916 0.8566072
-13.910596 3.1047435 -2.8621862
-11.795753 2.7967639 -3.244416
-9.7697191 2.5038085 -3.5321448
-2.6500039 1.5409524 -2.0507081
-4.0570202 1.7090223 -3.1748769
-1.0321099 1.2963983 -2.6780298
-0.89984214 1.2634963 -3.2124336
-1.0216783 1.2634887 -3.8543613
-1.0527482 1.2514881 -4.4673386
-0.38942531 1.150818 -4.7396135
-185.15822 28.406984 35.125557
-129.03146 20.109308 22.183279
-70.715279 11.518833 9.8847475
-57.607708 9.5804768 6.8398132
-47.022957 8.0211658 4.6058908
-39.62085 6.9272246 2.910007
-33.864082 6.0751362 1.5465417
-0.11566141 1.3357224 3.0598967
-0.21934143 1.3357224 2.5138941
-0.23262215 1.3230236 1.9714417
-18.441936 3.8004327 -1.8132913
-16.186039 3.4646461 -2.4183583
-14.012347 3.1432774 -2.9200194
-11.793701 2.8194301 -3.277369
-0.55651021 1.2935899 -0.83029926
-0.5229485 1.2740238 -1.3811669
-4.5213599 1.786888 -3.3699841
-1.0499687 1.3129028 -2.711482
-0.95369768 1.2844512 -3.2625806
-0.84075993 1.2539588 -3.8020668
-0.92934358 1.2493933 -4.4383316
-0.31744587 1.1548082 -4.7331829
-187.00562 28.853861 35.384823
-127.97358 20.081686 22.032976
-70.469818 11.558578 9.841258
-57.377075 9.6108608 6.8025751
-46.886776 8.0559244 4.5746179
-39.563576 6.9666634 2.8795574
-33.691669 6.093329 1.5242045
0.19444792 1.3070561 3.0751796
-24.358816 4.7114806 -0.40198681
-21.326723 4.2577443 -1.2048326
-18.596355 3.8505991 -1.8746608
-16.105995 3.4805908 -2.4356303
-0.29016131 1.3015698 0.31912935
-11.74025 2.835252 -3.2968388
-9.6308584 2.5276484 -3.5572326
-5.7361941 1.9846447 -3.1161561
-4.9397755 1.8594363 -3.5501428
-0.90277547 1.3077313 -2.681057
-0.7221517 1.2681384 -3.1932333
-0.91523832 1.2774919 -3.8646367
-0.85537457 1.2535981 -4.433022
-0.27341643 1.162343 -4.7411375
-130.93645 20.649797 22.357918
-99.463974 15.938028 15.04164
-70.303391 11.614208 9.8005667
-57.068653 9.6338034 6.7612391
-46.88414 8.1130886 4.5410347
-39.379829 6.9911408 2.8510294
-33.539417 6.1169004 1.4985074
-28.375639 5.3478422 0.44648448
-24.430893 4.7579403 -0.44608
-21.21854 4.2761517 -1.224378
-0.022773083 1.3094424 1.4371216
-16.144066 3.5143828 -2.4798651
-13.880987 3.1768546 -2.9590421
-11.710946 2.8557541 -3.324903
-9.6075373 2.5470533 -3.5856924
-0.54262841 1.3057823 -1.4363458
-5.3737283 1.9358212 -3.7391183
-0.86026418 1.3171307 -2.6927862
-0.83658195 1.2979943 -3.2709267
-0.76731169 1.2728881 -3.8287699
