# .PCD v.7 - Point Cloud Data file format
VERSION .7
FIELDS x y z 
SIZE 4 4 4 
TYPE F F F 
COUNT 1 1 1 
WIDTH 1864
HEIGHT 1
VIEWPOINT 0 0 0 1 0 0 0
POINTS 1864
DATA ascii
4.6212	-5.61394	-2.74854
4.31032	-5.23628	-2.74205
3.6949	-4.48865	-2.49767
3.66262	-4.44943	-2.63705
3.48818	-4.23752	-2.66604
3.26139	-3.96202	-2.63776
3.08507	-3.74782	-2.63662
2.92562	-3.55411	-2.63921
25.1071	-30.6749	4.72638
25.517	-31.1757	3.8494
12.0867	-14.7671	0.533853
12.1381	-14.8299	0.090805
17.0473	-20.8277	-0.534076
17.0245	-20.7999	-1.16266
12.7985	-15.6367	-1.32218
12.9483	-15.8198	-1.81645
13.5092	-16.505	-2.40341
12.3524	-15.0917	-2.65007
10.8838	-13.2974	-2.73236
9.62276	-11.7567	-2.77165
8.60789	-10.5168	-2.79792
3.15184	-3.8508	-1.08828
7.15059	-8.73632	-2.86464
6.4501	-7.88048	-2.8293
5.88183	-7.18619	-2.80692
5.39326	-6.58927	-2.78641
4.99478	-6.10243	-2.77943
3.40545	-4.16065	-2.0087
3.74513	-4.57565	-2.37899
3.55274	-4.3406	-2.40656
3.75322	-4.58554	-2.71406
3.48086	-4.25278	-2.66963
3.20558	-3.91645	-2.60021
3.0779	-3.76046	-2.63956
2.92331	-3.57158	-2.64635
25.0871	-30.8477	4.74055
25.5195	-31.3793	3.86426
12.1217	-14.9052	0.090805
17.0385	-20.951	-0.536165
17.0158	-20.923	-1.16685
12.7418	-15.6676	-1.32134
12.7453	-15.6719	-1.79379
13.7518	-16.9095	-2.45801
12.2787	-15.0982	-2.64423
10.8332	-13.3208	-2.73009
9.58206	-11.7823	-2.77054
3.09443	-3.80499	-0.951664
7.78118	-9.56791	-2.8313
7.13532	-8.77375	-2.8697
6.41561	-7.88878	-2.82489
5.87609	-7.22537	-2.81526
5.38688	-6.62383	-2.79409
4.94949	-6.08601	-2.76438
4.58897	-5.64271	-2.74927
4.2815	-5.26462	-2.7436
4.01519	-4.93717	-2.74252
3.47076	-4.26773	-2.51297
3.36148	-4.13336	-2.58525
3.19883	-3.93335	-2.6049
3.06168	-3.76471	-2.63564
2.90665	-3.57408	-2.64125
25.0858	-31.0226	4.75635
25.5144	-31.5527	3.87652
25.485	-31.5163	2.92501
11.7353	-14.5126	0.96117
12.0662	-14.9219	0.090805
17.0378	-21.07	-0.5383
17.0189	-21.0466	-1.17142
12.4947	-15.4518	-1.29874
12.724	-15.7353	-1.79713
13.6745	-16.9108	-2.45243
12.2166	-15.1077	-2.63977
10.7886	-13.3418	-2.72815
9.53923	-11.7968	-2.76757
8.52688	-10.5449	-2.79168
7.75198	-9.58657	-2.83038
3.09006	-3.82136	-1.19571
3.08375	-3.81356	-1.3155
3.09481	-3.82723	-1.44504
5.34692	-6.61232	-2.78256
3.10555	-3.84051	-1.70685
4.57554	-5.6584	-2.75072
4.26562	-5.27513	-2.74282
4.00139	-4.94836	-2.74252
3.72595	-4.60773	-2.71406
3.47354	-4.29559	-2.68399
3.19671	-3.95325	-2.61241
3.05225	-3.7746	-2.63662
2.89557	-3.58084	-2.64023
25.0616	-31.1927	4.77005
25.4763	-31.7087	3.88563
11.973	-14.902	0.090805
17.0166	-21.1795	-0.539972
12.6507	-15.7455	-0.851112
12.4899	-15.5454	-1.30363
12.5486	-15.6184	-1.77837
12.4033	-15.4376	-2.22501
12.1306	-15.0982	-2.63114
10.7429	-13.371	-2.72717
9.50089	-11.8252	-2.7672
8.49616	-10.5746	-2.79251
3.09848	-3.85649	-1.08136
7.07344	-8.80387	-2.86565
6.36627	-7.92371	-2.82378
5.82474	-7.24969	-2.81109
5.34273	-6.64977	-2.79153
4.9286	-6.13432	-2.77327
3.42123	-4.25819	-2.04216
3.32547	-4.13901	-2.12692
3.57957	-4.45528	-2.45374
3.52916	-4.39253	-2.5763
3.46339	-4.31067	-2.68669
3.15995	-3.93299	-2.59176
3.04365	-3.78824	-2.63956
2.88215	-3.58724	-2.63819
25.06	-31.3696	4.78608
11.317	-14.1664	1.3587
11.4295	-14.3073	0.944772
10.9584	-13.7175	0.498433
11.9026	-14.8994	0.090805
17.0273	-21.3144	-0.542571
17.0047	-21.2861	-1.17971
12.3144	-15.415	-1.28884
12.4763	-15.6176	-1.77409
12.4134	-15.5389	-2.235
12.0797	-15.1212	-2.62919
10.6944	-13.3871	-2.72426
9.46048	-11.8425	-2.76498
3.03913	-3.80433	-0.944179
7.67309	-9.60504	-2.82208
7.04037	-8.81301	-2.86211
6.34172	-7.93845	-2.82268
5.81043	-7.27339	-2.81407
5.3135	-6.65134	-2.78577
4.90558	-6.14072	-2.76985
4.51514	-5.65197	-2.73399
4.23194	-5.29746	-2.74128
3.97652	-4.97773	-2.74578
3.41195	-4.27102	-2.49672
3.32305	-4.15974	-2.58345
3.20075	-4.00664	-2.63589
3.03088	-3.794	-2.6376
2.86675	-3.58855	-2.63309
25.0458	-31.5434	4.80095
10.9537	-13.7954	0.499779
11.8621	-14.9394	0.090805
17.0087	-21.4212	-0.544242
17.0184	-21.4335	-1.18549
12.157	-15.3108	-1.27628
12.4076	-15.6265	-1.77075
12.3611	-15.5679	-2.23384
11.988	-15.098	-2.61862
10.6461	-13.4079	-2.72199
9.42041	-11.8643	-2.7635
8.41808	-10.602	-2.78669
3.04233	-3.8316	-1.06845
3.03908	-3.8275	-1.18862
6.32412	-7.96476	-2.82544
3.03925	-3.82771	-1.43431
3.02684	-3.81209	-1.55396
4.89552	-6.16555	-2.77464
3.7187	-4.68343	-2.2444
4.22194	-5.31722	-2.74514
3.96059	-4.98808	-2.74496
3.43861	-4.33068	-2.52667
3.44184	-4.33474	-2.68938
3.19324	-4.02166	-2.63964
3.01853	-3.80161	-2.63662
2.85396	-3.59435	-2.63105
25.0438	-31.7451	4.8193
11.6813	-14.8071	1.85036
11.2281	-14.2325	0.936201
11.2397	-14.2473	0.512127
11.8138	-14.975	0.090805
17.0057	-21.5562	-0.546656
12.2861	-15.5736	-0.834249
12.1385	-15.3865	-1.27963
12.1488	-15.3996	-1.73917
12.349	-15.6534	-2.2408
11.9062	-15.0921	-2.61082
10.599	-13.4351	-2.72069
9.377	-11.8861	-2.76165
8.39443	-10.6406	-2.79002
7.61066	-9.64715	-2.8207
6.98161	-8.84977	-2.86008
6.30502	-7.99214	-2.8282
5.75288	-7.29226	-2.80752
5.27511	-6.68665	-2.78705
4.88195	-6.18828	-2.77806
4.48399	-5.68384	-2.73617
4.18692	-5.30728	-2.7328
3.35532	-4.25315	-2.32114
3.25032	-4.12005	-2.39318
3.43263	-4.35114	-2.69297
3.14012	-3.98037	-2.6049
3.01305	-3.81929	-2.6425
2.84691	-3.6087	-2.63513
25.0421	-31.9259	4.83579
25.1763	-32.0969	3.89659
25.4309	-32.4215	2.97217
11.8724	-15.1361	0.537427
11.7609	-14.9938	0.090805
10.7532	-13.7091	-0.313713
16.9933	-21.6646	-1.19322
12.1275	-15.4612	-1.28326
12.5543	-16.0054	-1.80698
12.293	-15.6722	-2.23848
11.8615	-15.1221	-2.61027
10.5578	-13.46	-2.71972
9.33286	-11.8984	-2.75832
2.97376	-3.79121	-0.933368
7.60651	-9.69745	-2.82946
6.95926	-8.87228	-2.86109
6.272	-7.9961	-2.82323
5.73132	-7.30679	-2.80692
5.25408	-6.69837	-2.78577
4.84145	-6.17231	-2.76438
4.4888	-5.72272	-2.74927
4.20512	-5.36106	-2.75516
3.93543	-5.01724	-2.74822
3.559	-4.53733	-2.63876
3.23847	-4.12868	-2.54485
3.17041	-4.04192	-2.64058
3.00022	-3.82495	-2.64054
2.8347	-3.61393	-2.63309
25.0308	-32.1188	4.85275
11.215	-14.3908	1.79296
25.3951	-32.5862	2.9797
11.518	-14.7795	0.964617
11.7794	-15.1149	0.53571
11.6965	-15.0086	0.090805
16.9816	-21.7903	-1.19751
12.1929	-15.6455	-1.29623
12.5064	-16.0479	-1.80735
12.179	-15.6277	-2.22617
11.7896	-15.1281	-2.6047
10.5069	-13.4822	-2.71745
9.29422	-11.9261	-2.75794
8.32753	-10.6856	-2.78877
2.98829	-3.83449	-1.06107
2.9733	-3.81524	-1.17545
6.25866	-8.03093	-2.82875
2.97974	-3.82351	-1.4218
2.96883	-3.80951	-1.54115
4.84861	-6.22158	-2.78011
4.46393	-5.72798	-2.7449
4.18031	-5.36405	-2.74976
3.91404	-5.02238	-2.74415
3.64474	-4.67682	-2.71577
3.40235	-4.3658	-2.68938
3.15878	-4.05326	-2.64152
2.9839	-3.82885	-2.63662
2.82016	-3.61875	-2.63003
25.0201	-32.2906	4.86785
25.0036	-32.2694	3.89937
25.2319	-32.564	2.97147
11.4167	-14.7343	0.960052
11.7653	-15.1841	0.536777
11.6349	-15.0159	0.090805
10.9717	-14.1599	-0.325086
12.414	-16.0213	-0.854373
12.1821	-15.7221	-1.3
12.1957	-15.7396	-1.76685
12.2059	-15.7528	-2.23964
11.7303	-15.139	-2.6008
10.4668	-13.5084	-2.7168
9.25607	-11.9458	-2.75646
8.28328	-10.6903	-2.78378
7.51545	-9.69935	-2.81655
6.88634	-8.88742	-2.85248
6.2421	-8.05597	-2.8315
5.67032	-7.31804	-2.79798
5.23397	-6.75489	-2.79665
4.83236	-6.23658	-2.7808
4.43993	-5.73011	-2.73981
4.14723	-5.35236	-2.73743
3.36619	-4.34437	-2.35612
3.17992	-4.10396	-2.36666
3.39453	-4.38093	-2.69297
3.09445	-3.99366	-2.59551
2.9732	-3.83717	-2.63662
2.80478	-3.61981	-2.62493
25.0103	-32.4765	4.88434
24.9965	-32.4586	3.91294
10.7611	-13.9736	1.3241
11.056	-14.3565	0.935828
11.5787	-15.0352	0.531392
11.5867	-15.0456	0.090805
10.9406	-14.2067	-0.325504
12.2604	-15.9204	-0.846267
11.8299	-15.3614	-1.26498
12.0068	-15.5911	-1.74511
12.2585	-15.918	-2.25869
11.7011	-15.1942	-2.60442
10.4183	-13.5284	-2.71453
9.21459	-11.9654	-2.75461
8.24197	-10.7024	-2.78045
7.49852	-9.73702	-2.82116
6.87175	-8.92314	-2.85755
6.21934	-8.07598	-2.83205
5.65906	-7.34844	-2.80335
5.20812	-6.76289	-2.79345
4.80925	-6.24494	-2.77806
4.42177	-5.74178	-2.73908
4.13021	-5.36318	-2.73666
3.88616	-5.04628	-2.74496
3.63098	-4.71492	-2.72604
3.27356	-4.2508	-2.6041
3.13754	-4.07418	-2.6434
2.9735	-3.86117	-2.64739
2.79927	-3.63493	-2.63003
24.9966	-32.6823	4.90246
10.871	-14.2136	1.76026
11.3522	-14.8427	1.39748
10.6248	-13.8917	0.906388
10.7817	-14.0968	0.502843
11.5914	-15.1554	0.090805
11.0319	-14.4239	-0.330796
12.4842	-16.3228	-0.867509
11.9789	-15.6621	-1.288
12.1667	-15.9076	-1.77762
12.1984	-15.9491	-2.2573
11.635	-15.2124	-2.6008
10.3722	-13.5613	-2.7142
9.16769	-11.9865	-2.75239
8.21476	-10.7406	-2.78337
2.92736	-3.82744	-1.05092
2.91857	-3.81595	-1.16684
6.20654	-8.11489	-2.83867
2.92636	-3.82613	-1.41227
2.91226	-3.8077	-1.52899
4.7908	-6.26384	-2.77943
4.40497	-5.75938	-2.74054
3.48231	-4.55302	-2.30344
3.86274	-5.05043	-2.74008
3.60434	-4.71258	-2.71748
3.24316	-4.24034	-2.59063
3.12938	-4.09158	-2.64809
2.9628	-3.87378	-2.64935
2.7872	-3.64419	-2.63003
24.9845	-32.8563	4.9178
24.9822	-32.8532	3.94136
11.2624	-14.8109	1.3919
24.911	-32.7597	2.01004
10.8524	-14.2717	0.507067
10.6762	-14.0399	0.090805
16.9618	-22.3059	-0.559794
16.9637	-22.3084	-1.21614
11.9242	-15.6812	-1.28675
12.0451	-15.8401	-1.76573
12.1911	-16.0321	-2.2645
11.5901	-15.2417	-2.60025
10.3223	-13.5745	-2.71096
9.12824	-12.0042	-2.75054
8.17526	-10.751	-2.78004
7.42712	-9.76716	-2.81655
6.79954	-8.94185	-2.84995
6.192	-8.1429	-2.84253
5.62909	-7.40263	-2.81109
5.16442	-6.79156	-2.79217
4.75281	-6.25026	-2.76711
4.36406	-5.73903	-2.72453
2.90212	-3.81648	-1.91185
3.32663	-4.37474	-2.35612
3.01015	-3.95854	-2.26312
3.37735	-4.44144	-2.71182
3.05701	-4.02018	-2.59457
2.9372	-3.86261	-2.63564
2.77701	-3.65196	-2.63003
24.99	-33.0666	4.93777
11.0303	-14.5953	1.7976
11.0512	-14.623	1.37251
10.6241	-14.0578	0.912537
10.5846	-14.0055	0.498387
10.6996	-14.1577	0.090805
16.9763	-22.463	-0.562904
11.9961	-15.8732	-0.837044
12.0509	-15.9457	-1.30684
12.0161	-15.8996	-1.76852
12.1291	-16.0492	-2.26171
11.5412	-15.2713	-2.59941
10.276	-13.5972	-2.70934
9.09258	-12.0313	-2.75054
8.13861	-10.769	-2.77838
2.87241	-3.80077	-1.03801
6.78115	-8.97279	-2.8535
6.17014	-8.1643	-2.84363
5.61286	-7.42691	-2.81407
5.15567	-6.82197	-2.79857
4.76371	-6.30332	-2.7849
4.36498	-5.77573	-2.73617
4.08693	-5.40781	-2.74051
3.84241	-5.08426	-2.74659
3.58368	-4.74191	-2.72261
3.35338	-4.43718	-2.70284
3.11108	-4.11658	-2.65279
2.93729	-3.88661	-2.64642
2.76513	-3.65881	-2.62901
24.98	-33.2582	4.95496
10.9403	-14.5659	1.79036
11.0078	-14.6557	1.37251
10.8535	-14.4503	0.933592
11.2274	-14.9481	0.524847
11.168	-14.869	0.090805
16.9564	-22.5757	-0.564714
11.5962	-15.4391	-0.809653
11.9795	-15.9495	-1.30404
11.8803	-15.8174	-1.75477
12.4751	-16.6092	-2.33837
11.4899	-15.2975	-2.59802
10.2297	-13.6198	-2.70772
9.0474	-12.0456	-2.74758
8.10897	-10.7962	-2.77921
7.355	-9.79238	-2.81101
2.85843	-3.80569	-1.15519
6.14704	-8.18411	-2.84418
5.5908	-7.44353	-2.81407
2.85958	-3.80722	-1.5181
4.72015	-6.28437	-2.76985
4.34223	-5.78121	-2.73254
3.87802	-5.16315	-2.60638
3.81084	-5.07372	-2.73439
3.57068	-4.75397	-2.72347
3.16954	-4.2199	-2.56011
3.10416	-4.13285	-2.65748
2.92469	-3.89391	-2.64544
2.75839	-3.6725	-2.63309
24.9858	-33.4722	4.97541
10.691	-14.3222	1.75822
10.4833	-14.044	1.31629
10.9731	-14.7002	0.946263
11.1208	-14.898	0.522433
11.2626	-15.088	0.090805
10.4798	-14.0392	-0.315941
11.6006	-15.5407	-0.813566
11.7913	-15.7963	-1.28758
12.1026	-16.2132	-1.79676
12.2166	-16.366	-2.29749
11.4302	-15.3125	-2.59468
10.1834	-13.6421	-2.7061
9.00809	-12.0677	-2.74647
8.0652	-10.8045	-2.77505
7.35036	-9.84691	-2.8207
6.70695	-8.98497	-2.84438
6.14343	-8.23005	-2.85411
5.57668	-7.4708	-2.81824
5.10036	-6.8327	-2.79025
4.71835	-6.32094	-2.78011
3.30091	-4.42206	-2.06399
4.04593	-5.42013	-2.73434
3.31925	-4.44664	-2.37971
3.03318	-4.06341	-2.30933
3.33982	-4.47419	-2.71362
3.03167	-4.06138	-2.60396
2.89435	-3.87742	-2.6278
2.7516	-3.68618	-2.63717
24.9645	-33.6638	4.9919
10.3458	-13.951	1.71121
10.9347	-14.7451	1.37446
10.9816	-14.8084	0.950549
10.5833	-14.2712	0.503307
11.2033	-15.1072	0.090805
10.3927	-14.0143	-0.31427
16.9413	-22.8448	-1.23552
11.8462	-15.9743	-1.29986
11.9187	-16.072	-1.77595
12.5272	-16.8926	-2.36857
11.3679	-15.3293	-2.59134
10.1358	-13.6677	-2.7048
8.96779	-12.0928	-2.74573
2.82001	-3.8027	-0.915488
2.83085	-3.8173	-1.03525
6.68791	-9.01843	-2.84843
6.09693	-8.22151	-2.84418
5.55659	-7.49288	-2.82003
5.07662	-6.84565	-2.78897
4.69511	-6.3312	-2.77806
4.30684	-5.80763	-2.73254
4.03218	-5.43727	-2.73666
3.77869	-5.09544	-2.73357
3.54803	-4.7844	-2.7286
3.21503	-4.33536	-2.62026
3.08411	-4.15883	-2.66218
2.90189	-3.9131	-2.64642
2.73488	-3.6879	-2.63207
11.0548	-14.9944	2.26933
24.9565	-33.8501	4.01437
10.549	-14.3083	1.33387
10.7672	-14.6042	0.936946
10.8471	-14.7127	0.515191
11.18	-15.1642	0.090805
10.3097	-13.9837	-0.312552
10.2763	-13.9385	-0.716765
11.772	-15.9671	-1.29637
11.8206	-16.0331	-1.76759
12.7323	-17.2696	-2.41828
11.3309	-15.3689	-2.59273
10.0917	-13.688	-2.70318
8.92816	-12.1099	-2.74387
7.99514	-10.8443	-2.77297
7.25716	-9.84337	-2.80686
6.65351	-9.02461	-2.84438
6.10133	-8.27564	-2.85741
5.51525	-7.48071	-2.8093
2.80984	-3.81117	-1.50914
4.65288	-6.31101	-2.76301
4.29281	-5.82263	-2.73399
4.01479	-5.44553	-2.73512
3.4793	-4.7192	-2.51963
3.53144	-4.78993	-2.72604
3.03534	-4.11703	-2.47842
3.0421	-4.1262	-2.63495
2.89509	-3.92681	-2.65033
2.72764	-3.69968	-2.63513
24.9675	-34.0763	5.03093
24.9512	-34.0541	4.02942
10.8767	-14.8448	1.37767
10.8112	-14.7554	0.943841
10.9571	-14.9545	0.521226
10.8631	-14.8262	0.090805
10.2906	-14.0448	-0.313434
16.9205	-23.0935	-1.24428
11.6573	-15.9103	-1.28842
11.7083	-15.9797	-1.75737
12.6798	-17.3057	-2.41805
11.2876	-15.4057	-2.59329
10.0475	-13.7131	-2.70221
8.88522	-12.1268	-2.74165
2.7576	-3.76364	-0.900934
7.24632	-9.88997	-2.81424
6.62671	-9.04431	-2.84438
6.08243	-8.30146	-2.86017
5.50996	-7.52014	-2.81824
5.05502	-6.89923	-2.79921
4.6519	-6.34904	-2.77396
4.26561	-5.82182	-2.72744
3.98771	-5.44253	-2.72741
2.96098	-4.04123	-2.13974
2.936	-4.00713	-2.26056
3.1393	-4.2846	-2.57717
2.92547	-3.99276	-2.54105
2.84839	-3.88756	-2.61702
2.7136	-3.70359	-2.63207
10.4874	-14.4029	2.17432
11.0114	-15.1226	1.83606
10.8232	-14.8642	1.37656
10.8285	-14.8714	0.948685
10.8103	-14.8463	0.517187
10.5342	-14.4671	0.090805
10.2912	-14.1335	-0.315105
11.8304	-16.2474	-0.846454
11.6852	-16.048	-1.29735
11.7147	-16.0885	-1.76592
12.6798	-17.4139	-2.42827
11.2326	-15.4263	-2.59106
9.99867	-13.7317	-2.69994
8.84689	-12.1499	-2.74091
2.766	-3.79869	-0.908003
2.76879	-3.80253	-1.02372
6.60895	-9.07644	-2.84843
6.05211	-8.3117	-2.85741
5.50223	-7.55652	-2.82598
5.03564	-6.91573	-2.79985
4.64411	-6.37801	-2.7808
4.26148	-5.85252	-2.73617
3.9987	-5.49164	-2.74668
3.54049	-4.86236	-2.58715
3.49976	-4.80642	-2.72347
3.24545	-4.45716	-2.67861
2.99677	-4.11563	-2.61617
2.85532	-3.92137	-2.63466
2.72386	-3.74083	-2.65349
10.9233	-15.0954	2.26979
10.8194	-14.9519	1.81265
10.4656	-14.463	1.33917
10.9776	-15.1705	0.964058
10.6103	-14.6629	0.511013
10.6741	-14.7511	0.090805
16.9434	-23.415	-0.580219
16.9307	-23.3975	-1.25602
11.4528	-15.8272	-1.27531
11.6973	-16.1651	-1.77075
12.6829	-17.5271	-2.43919
11.1821	-15.4531	-2.58995
9.94978	-13.7501	-2.69767
8.80388	-12.1666	-2.73869
2.72489	-3.76568	-0.897191
7.16127	-9.89654	-2.80364
6.56839	-9.0772	-2.84235
6.02066	-8.32028	-2.85411
5.46412	-7.55116	-2.81764
2.74692	-3.79612	-1.49249
4.59542	-6.35065	-2.76233
4.24628	-5.86816	-2.73763
3.92505	-5.42424	-2.70582
3.59246	-4.96461	-2.63758
3.48654	-4.81824	-2.72432
3.09916	-4.28289	-2.5646
3.01146	-4.1617	-2.64058
2.85594	-3.94677	-2.64642
2.70771	-3.74193	-2.64839
10.426	-14.504	1.75729
10.8336	-15.0709	1.38869
10.4226	-14.4992	0.92353
10.263	-14.2773	0.499036
10.7596	-14.9681	0.090805
16.9176	-23.5346	-0.582122
11.7065	-16.2853	-0.844497
11.4915	-15.9862	-1.28591
12.388	-17.2334	-1.88928
12.6579	-17.6088	-2.44523
11.115	-15.4624	-2.58549
9.90193	-13.7749	-2.69637
8.75873	-12.1846	-2.73647
2.7199	-3.78375	-0.899686
7.14491	-9.93953	-2.80963
2.75665	-3.83487	-1.14557
6.0102	-8.361	-2.86182
5.44371	-7.57294	-2.81943
4.97782	-6.92482	-2.79089
4.5919	-6.38795	-2.77259
4.2126	-5.86029	-2.72744
2.73064	-3.79869	-1.86329
3.08308	-4.28898	-2.26095
3.04195	-4.23176	-2.37607
3.26615	-4.54366	-2.7199
2.92931	-4.07507	-2.57767
2.80281	-3.89909	-2.60723
2.70096	-3.7574	-2.65349
10.9354	-15.3026	1.84553
10.7346	-15.0216	1.38186
10.9187	-15.2792	0.966573
10.0569	-14.0733	0.492398
10.8108	-15.1282	0.090805
11.1566	-15.6122	-0.354703
11.6888	-16.3569	-0.846733
11.4758	-16.0588	-1.2894
11.681	-16.346	-1.78357
10.7988	-15.1115	-2.08121
10.8288	-15.1534	-2.52676
9.8531	-13.7881	-2.69345
8.72239	-12.2058	-2.73573
2.71387	-3.7977	-0.90135
2.72125	-3.80802	-1.01818
6.50091	-9.09713	-2.83628
5.9913	-8.38401	-2.86403
5.42143	-7.58656	-2.81883
4.96177	-6.94332	-2.79281
4.57513	-6.40227	-2.77327
4.18972	-5.86294	-2.72308
3.95932	-5.54053	-2.75362
3.69254	-5.1672	-2.73683
3.46315	-4.8462	-2.7286
3.16824	-4.43353	-2.64629
3.03292	-4.24415	-2.68283
2.81726	-3.94237	-2.63172
2.69046	-3.76493	-2.65349
10.6006	-14.922	2.66328
10.6158	-14.9435	1.80095
10.116	-14.2399	1.31224
10.9697	-15.4416	0.97412
10.1229	-14.2496	0.496623
10.362	-14.5861	0.090805
10.6927	-15.0516	-0.337852
10.4641	-14.7299	-0.751796
11.4367	-16.099	-1.29009
11.6111	-16.3445	-1.77967
10.7646	-15.1529	-2.08284
10.7532	-15.1368	-2.51869
9.80884	-13.8075	-2.69183
8.6803	-12.2189	-2.73313
2.67493	-3.76539	-0.890954
7.05547	-9.93168	-2.7958
6.48108	-9.12314	-2.83881
2.68554	-3.78032	-1.23887
2.70785	-3.81173	-1.36819
4.92151	-6.9278	-2.78064
2.70582	-3.80887	-1.60972
4.19383	-5.90347	-2.7369
3.93528	-5.53953	-2.74745
3.66963	-5.16558	-2.73032
3.20148	-4.50659	-2.52581
3.18794	-4.48752	-2.67412
3.02207	-4.25404	-2.68377
2.81836	-3.96728	-2.64348
2.6889	-3.78505	-2.66268
10.4181	-14.7577	2.6296
10.5226	-14.9057	2.22449
10.8138	-15.3182	1.84015
10.6893	-15.1418	1.38688
10.6485	-15.084	0.951853
10.1394	-14.3629	0.49899
9.99221	-14.1544	0.090805
11.4027	-16.1524	-1.29177
11.8646	-16.8067	-1.82853
10.6956	-15.1507	-2.07796
10.7014	-15.1589	-2.51702
9.76214	-13.8285	-2.69021
8.64174	-12.2414	-2.73239
2.66601	-3.77651	-0.891786
2.66673	-3.77752	-1.00481
2.69585	-3.81879	-1.13291
5.9407	-8.41524	-2.86293
5.37435	-7.61298	-2.81705
4.90968	-6.95475	-2.78577
4.55769	-6.45615	-2.78558
4.17522	-5.91437	-2.73617
2.68635	-3.80532	-1.85481
3.23491	-4.58237	-2.40656
2.98793	-4.23252	-2.36152
3.22305	-4.56558	-2.71631
2.9463	-4.17355	-2.62556
2.78043	-3.93859	-2.61801
2.6727	-3.78598	-2.65757
10.6057	-15.1241	2.25098
10.6947	-15.251	1.82863
9.93721	-14.1707	1.30108
10.2718	-14.6479	0.925114
10.1976	-14.542	0.503168
10.0602	-14.3462	0.090805
10.643	-15.1772	-0.33957
16.8846	-24.0779	-1.28061
11.3301	-16.1571	-1.28912
11.4619	-16.345	-1.77168
12.3108	-17.5556	-2.41666
10.822	-15.4325	-2.55822
9.71638	-13.8558	-2.68956
8.59986	-12.2636	-2.73128
2.65862	-3.79127	-0.893449
2.66714	-3.80341	-1.00988
6.39746	-9.12295	-2.82614
5.91423	-8.43386	-2.86293
5.35917	-7.64233	-2.82181
4.89433	-6.97945	-2.78961
4.54602	-6.48275	-2.79106
4.14164	-5.9061	-2.72599
3.90137	-5.56346	-2.74745
3.63801	-5.1879	-2.73032
3.25589	-4.64298	-2.59341
2.99321	-4.2684	-2.52779
2.91289	-4.15387	-2.60678
2.74702	-3.91732	-2.59743
2.66474	-3.79999	-2.66166
10.3535	-14.8634	2.63656
10.4003	-14.9308	2.21869
10.5796	-15.1881	1.81767
10.5928	-15.2071	1.38674
10.3651	-14.8801	0.936481
9.97698	-14.323	0.496065
10.5798	-15.1884	0.090805
10.2204	-14.6724	-0.324343
16.8671	-24.2144	-1.28536
11.5256	-16.5462	-1.31925
11.4492	-16.4365	-1.77799
12.3476	-17.7262	-2.43547
10.7384	-15.416	-2.54959
9.67055	-13.883	-2.68891
8.55455	-12.2809	-2.72906
7.65944	-10.9959	-2.75759
2.63738	-3.78622	-1.00251
6.38646	-9.16841	-2.83425
2.64606	-3.79869	-1.23666
2.65393	-3.80998	-1.35806
4.8648	-6.98391	-2.78513
4.51381	-6.48004	-2.78353
4.14756	-5.95424	-2.74272
3.88387	-5.57569	-2.74745
3.62169	-5.1993	-2.73032
3.28674	-4.71845	-2.63106
3.19532	-4.58721	-2.71721
2.99471	-4.2992	-2.69504
2.75961	-3.9617	-2.62192
2.6577	-3.8154	-2.66676
10.4679	-15.1232	2.24168
10.2251	-14.7724	1.76695
10.1854	-14.7151	1.34224
9.90018	-14.303	0.902009
9.73188	-14.0599	0.487802
9.86199	-14.2478	0.090805
10.0892	-14.5761	-0.320769
16.877	-24.3826	-1.29207
11.3334	-16.3736	-1.30167
11.3856	-16.4491	-1.77558
12.2972	-17.766	-2.43594
10.6824	-15.4331	-2.54708
9.62707	-13.9084	-2.68826
8.52143	-12.3111	-2.73017
7.63123	-11.025	-2.75925
2.62724	-3.79563	-1.00297
2.64169	-3.81651	-1.1243
5.86917	-8.47932	-2.86623
5.31565	-7.67963	-2.8236
4.85915	-7.02013	-2.79409
4.49778	-6.49804	-2.78558
4.12987	-5.96652	-2.74272
2.64158	-3.81635	-1.84787
3.23293	-4.67069	-2.43828
3.211	-4.639	-2.57972
3.05354	-4.41151	-2.6041
2.97892	-4.30372	-2.69222
2.73495	-3.95124	-2.60919
2.63952	-3.81337	-2.65962
10.0289	-14.5703	2.57672
10.4632	-15.2013	2.24889
10.2428	-14.8811	1.77624
9.94212	-14.4443	1.31698
10.0609	-14.6169	0.918313
10.0068	-14.5382	0.500568
9.93011	-14.4268	0.090805
10.8344	-15.7405	-0.352846
16.8811	-24.5255	-1.29766
13.1581	-19.1166	-1.53201
11.3538	-16.4952	-1.77744
12.2315	-17.7703	-2.43199
10.6274	-15.4398	-2.54346
9.58279	-13.9222	-2.686
8.47802	-12.3172	-2.72647
2.59882	-3.77565	-0.883469
2.61398	-3.79769	-1.00158
6.32528	-9.18959	-2.82969
5.86003	-8.51366	-2.87285
5.29444	-7.69195	-2.82301
4.84291	-7.03594	-2.79537
4.47862	-6.50669	-2.78422
4.10685	-5.96657	-2.73763
3.85267	-5.5973	-2.74745
3.59259	-5.21945	-2.73032
3.37514	-4.90351	-2.72689
3.07744	-4.47102	-2.63552
2.83448	-4.11803	-2.56734
2.72756	-3.96269	-2.61213
2.62465	-3.81318	-2.65451
9.83044	-14.3731	2.12716
10.3257	-15.0972	1.79723
10.0017	-14.6236	1.32968
10.3198	-15.0886	0.943282
10.1736	-14.8748	0.509203
10.4337	-15.2552	0.090805
10.2232	-14.9474	-0.329635
16.8861	-24.6892	-1.30409
11.4813	-16.7869	-1.80661
12.1809	-17.8098	-2.43245
10.5558	-15.4337	-2.53706
9.54032	-13.949	-2.68567
8.43922	-12.339	-2.72573
7.56954	-11.0675	-2.75925
2.59721	-3.79739	-0.999279
6.29689	-9.20672	-2.82918
2.59828	-3.79896	-1.22895
5.25435	-7.68241	-2.81347
4.81559	-7.0409	-2.79153
4.4455	-6.49979	-2.77532
4.09123	-5.9818	-2.73908
3.84126	-5.61632	-2.7513
3.57915	-5.2331	-2.73195
3.36261	-4.91649	-2.7286
3.15396	-4.61142	-2.71541
2.96581	-4.33632	-2.70255
2.75122	-4.02258	-2.64739
2.62789	-3.84225	-2.66982
9.75398	-14.3579	2.12066
10.3688	-15.263	1.81228
10.3975	-15.3051	1.38465
10.6372	-15.658	0.973561
9.63241	-14.179	0.488777
10.5566	-15.5394	0.090805
10.2178	-15.0407	-0.331353
16.8679	-24.8297	-1.30903
16.8552	-24.811	-2.00663
13.859	-20.4006	-2.21013
12.1372	-17.8661	-2.43501
10.4872	-15.4373	-2.53205
9.49424	-13.9756	-2.68502
8.39489	-12.3574	-2.72388
7.53253	-11.0879	-2.75842
2.54918	-3.75241	-0.984062
6.26685	-9.22486	-2.82868
5.80143	-8.53975	-2.86954
5.23877	-7.71152	-2.81824
4.78919	-7.04972	-2.78897
4.424	-6.51217	-2.77464
4.09126	-6.02237	-2.75218
3.81426	-5.61462	-2.74437
3.35838	-4.94356	-2.57007
3.30652	-4.86722	-2.69438
2.91951	-4.29755	-2.51882
2.9611	-4.35876	-2.711
2.74445	-4.03986	-2.65327
2.61097	-3.84337	-2.66472
10.0454	-14.8873	2.61485
10.4633	-15.5066	2.27839
10.0357	-14.8729	1.76472
10.2645	-15.212	1.37404
10.0281	-14.8617	0.926884
10.0721	-14.9268	0.508878
10.378	-15.3802	0.090805
16.839	-24.9555	-1.31313
16.891	-25.0325	-2.02086
12.5229	-18.5589	-1.99796
12.0744	-17.8942	-2.43361
10.4553	-15.4948	-2.53623
9.44366	-13.9955	-2.68308
8.35493	-12.382	-2.72351
7.49547	-11.1083	-2.75759
6.799	-10.0761	-2.78934
2.59513	-3.84599	-1.12379
5.7778	-8.56272	-2.87119
5.21025	-7.72161	-2.81586
4.77126	-7.07102	-2.79153
4.41403	-6.54161	-2.78148
4.07545	-6.03982	-2.75436
3.80486	-5.63881	-2.75053
3.54825	-5.25851	-2.73357
3.3084	-4.90306	-2.70892
2.69807	-3.99855	-2.33209
2.84862	-4.22166	-2.61711
2.66835	-3.95451	-2.58959
2.59119	-3.84015	-2.65655
10.0111	-14.9319	2.61735
10.1097	-15.0789	2.21381
9.7176	-14.4941	1.71883
9.94046	-14.8265	1.33903
9.9795	-14.8847	0.926512
9.8006	-14.6179	0.499408
10.0694	-15.0188	0.090805
10.5878	-15.792	-0.350618
16.845	-25.1248	-1.31983
16.8867	-25.187	-2.02965
12.4955	-18.6374	-2.00261
12.0179	-17.925	-2.43292
10.3872	-15.4928	-2.53066
9.3977	-14.0169	-2.68178
8.31049	-12.3953	-2.72092
7.45485	-11.1191	-2.75467
2.55222	-3.80671	-0.995129
6.20176	-9.25011	-2.82463
2.54483	-3.79569	-1.21958
5.19795	-7.75289	-2.82181
4.7492	-7.08357	-2.79089
4.39251	-6.55156	-2.78011
2.57913	-3.84684	-1.71771
3.78914	-5.65161	-2.7513
3.52551	-5.2584	-2.72788
3.31196	-4.93988	-2.72432
2.90415	-4.33163	-2.52869
2.85673	-4.26089	-2.63682
2.71487	-4.0493	-2.64838
2.58841	-3.86068	-2.66574
10.3149	-15.4841	2.26654
10.1129	-15.1808	1.79259
9.64533	-14.479	1.30736
10.3252	-15.4995	0.959306
9.57095	-14.3673	0.491609
9.41164	-14.1282	0.090805
10.5997	-15.9116	-0.353078
16.828	-25.2611	-1.32468
12.7314	-19.1116	-1.51499
13.5916	-20.4029	-2.19638
11.9459	-17.9325	-2.42897
10.3171	-15.4873	-2.52454
9.35607	-14.0448	-2.68178
8.27041	-12.415	-2.7198
7.42291	-11.1428	-2.75509
6.73261	-10.1066	-2.78658
6.17644	-9.27169	-2.82564
5.70557	-8.56485	-2.86017
5.18021	-7.77622	-2.82479
2.52533	-3.79087	-1.44832
2.5163	-3.77732	-1.56115
4.03747	-6.0608	-2.75291
3.76315	-5.64901	-2.74437
3.50888	-5.26731	-2.72707
3.29628	-4.94818	-2.72347
3.00326	-4.5083	-2.63013
2.92338	-4.3884	-2.71288
2.70478	-4.06024	-2.65033
2.57503	-3.86548	-2.6637
10.335	-15.6086	2.72173
10.1641	-15.3505	2.24377
10.2551	-15.4879	1.8238
10.2239	-15.4408	1.38576
10.1241	-15.2901	0.945984
9.54293	-14.4123	0.49212
10.2654	-15.5035	0.090805
10.0342	-15.1542	-0.331167
16.8224	-25.4063	-1.33018
11.2857	-17.0444	-1.33865
13.5467	-20.4591	-2.19842
11.8783	-17.9393	-2.42525
10.2694	-15.5095	-2.52342
9.31681	-14.0708	-2.68178
8.23029	-12.4299	-2.71795
7.38961	-11.1602	-2.75426
6.71511	-10.1416	-2.79119
2.51768	-3.80235	-1.10302
5.68694	-8.58877	-2.86293
5.16059	-7.79384	-2.82598
4.70728	-7.10922	-2.79025
4.36093	-6.58615	-2.78422
4.00099	-6.04254	-2.73908
2.51454	-3.79761	-1.81164
3.29947	-4.98307	-2.57007
2.74452	-4.14495	-2.26227
2.82588	-4.26782	-2.48021
2.91209	-4.39801	-2.71382
2.5962	-3.92094	-2.55139
2.54333	-3.8411	-2.64125
10.2878	-15.6378	2.27978
9.69691	-14.7397	1.73685
9.64293	-14.6576	1.31768
9.71637	-14.7693	0.915238
9.50563	-14.4489	0.492352
9.35759	-14.2239	0.090805
10.2573	-15.5915	-0.342494
16.8227	-25.5713	-1.3366
16.3285	-24.82	-1.98668
12.1879	-18.5261	-1.97808
11.7955	-17.9297	-2.41898
10.1972	-15.5002	-2.51674
9.30322	-14.1413	-2.69021
8.19229	-12.4526	-2.71758
7.35539	-11.1805	-2.75384
2.50179	-3.80282	-0.987751
6.11549	-9.2958	-2.82209
2.49788	-3.79687	-1.21241
5.13744	-7.80912	-2.82598
4.68304	-7.11841	-2.78833
4.33414	-6.58807	-2.77943
2.52293	-3.83496	-1.7017
2.50225	-3.80352	-1.81087
3.47948	-5.28896	-2.72788
3.27667	-4.98067	-2.73117
3.0794	-4.68081	-2.72349
2.70394	-4.1101	-2.52509
2.68518	-4.08158	-2.65425
2.55178	-3.87881	-2.66268
9.74072	-14.8967	2.17223
9.78758	-14.9684	1.75933
9.8116	-15.0051	1.34447
9.49687	-14.5238	0.900052
10.7182	-16.3915	0.545504
9.31455	-14.245	0.090805
10.2356	-15.6535	-0.343423
10.3191	-15.7812	-0.788504
16.2384	-24.8338	-1.98403
13.3752	-20.4551	-2.18932
11.728	-17.9359	-2.41526
10.0856	-15.4242	-2.49921
9.26586	-14.1705	-2.69086
8.14888	-12.4623	-2.71462
7.31879	-11.1928	-2.75176
6.63528	-10.1475	-2.78196
6.08315	-9.30312	-2.81905
2.48411	-3.79901	-1.21076
2.49302	-3.81265	-1.33065
4.64551	-7.1045	-2.77744
4.3003	-6.57655	-2.76917
2.50304	-3.82796	-1.69515
2.48859	-3.80586	-1.80856
3.4777	-5.31853	-2.73846
3.25681	-4.98073	-2.72604
3.0624	-4.6834	-2.7199
2.88961	-4.41915	-2.71664
2.68331	-4.10366	-2.66405
2.5513	-3.90176	-2.6739
9.37658	-14.4442	2.51103
9.49982	-14.634	2.13111
9.91571	-15.2747	1.7898
9.6097	-14.8033	1.32494
10.4157	-16.0449	0.982878
10.127	-15.6002	0.522619
9.49595	-14.6281	0.090805
10.1629	-15.6555	-0.342541
16.8131	-25.8998	-1.34918
16.094	-24.7921	-1.97608
12.3369	-19.0044	-2.02304
11.6371	-17.9264	-2.40853
10.0516	-15.4841	-2.50366
9.2027	-14.1763	-2.686
8.10537	-12.4859	-2.71388
7.28163	-11.217	-2.75176
6.61961	-10.1972	-2.7898
2.48622	-3.82991	-1.10454
2.45475	-3.78142	-1.20193
5.08548	-7.83395	-2.8236
4.64463	-7.15483	-2.79153
4.28051	-6.59393	-2.77054
3.95511	-6.09266	-2.74563
2.47897	-3.81873	-1.81087
2.93477	-4.52088	-2.30894
3.02078	-4.65337	-2.53522
2.75978	-4.25131	-2.45508
2.87974	-4.43611	-2.72133
2.6545	-4.08913	-2.64838
2.53272	-3.90154	-2.66778
10.2419	-15.874	2.29999
10.035	-15.5533	1.81767
10.2238	-15.846	1.40948
10.6157	-16.4533	1.00393
9.40591	-14.5783	0.493605
9.42037	-14.6008	0.090805
10.1224	-15.6889	-0.34268
16.7938	-26.0289	-1.35375
15.9825	-24.7715	-1.97064
13.2263	-20.4996	-2.18523
11.5353	-17.8787	-2.39737
9.99978	-15.4988	-2.50143
9.13418	-14.1572	-2.67724
8.0694	-12.5069	-2.71351
7.24391	-11.2274	-2.74927
2.43408	-3.77261	-0.972995
2.47972	-3.84334	-1.10657
2.43688	-3.77695	-1.19808
5.04288	-7.81603	-2.81169
4.61333	-7.15026	-2.78449
4.27227	-6.62165	-2.77738
3.93707	-6.10212	-2.7449
3.68193	-5.70667	-2.74591
3.4501	-5.34736	-2.74252
3.23123	-5.00812	-2.73031
3.02986	-4.69602	-2.71631
2.8549	-4.42485	-2.70912
2.62322	-4.06576	-2.6278
2.52088	-3.90715	-2.66676
9.26661	-14.4564	1.69282
10.0508	-15.6798	1.39316
10.8396	-16.9103	1.0275
9.29247	-14.4968	0.490588
10.4218	-16.2585	0.090805
9.92909	-15.4899	-0.336366
10.1657	-15.8591	-0.787665
15.8928	-24.7937	-1.96855
13.1729	-20.5505	-2.18653
11.4425	-17.851	-2.38878
9.98368	-15.5751	-2.50923
9.09533	-14.1892	-2.67821
8.02483	-12.5192	-2.71092
7.20529	-11.2406	-2.74719
2.41867	-3.77326	-0.971151
2.44533	-3.81485	-1.09543
2.43085	-3.79226	-1.20083
5.02791	-7.84382	-2.81645
4.58596	-7.15435	-2.78064
4.24753	-6.62638	-2.77396
3.9099	-6.09966	-2.73836
3.64905	-5.69271	-2.73357
3.43126	-5.35295	-2.74008
3.22123	-5.0253	-2.73459
3.02073	-4.71251	-2.7208
2.68642	-4.19097	-2.55608
2.64314	-4.12343	-2.66111
2.51856	-3.9291	-2.67696
9.97616	-15.6715	2.26329
9.31418	-14.6316	1.70898
9.60505	-15.0885	1.34154
9.04086	-14.2022	0.875922
9.73865	-15.2984	0.511849
9.60702	-15.0916	0.090805
10.0307	-15.7572	-0.342865
15.8352	-24.8755	-1.9712
9.98895	-15.6916	-1.6446
11.3704	-17.8617	-2.3853
9.90917	-15.5663	-2.50255
9.04541	-14.2094	-2.67659
7.98652	-12.546	-2.71129
7.16889	-11.2616	-2.74677
6.51813	-10.2393	-2.78519
2.43229	-3.82088	-1.09492
5.49756	-8.63609	-2.84473
4.99299	-7.84347	-2.81049
4.56142	-7.16552	-2.77936
4.22266	-6.63335	-2.77122
3.89872	-6.12448	-2.74418
3.62718	-5.69792	-2.73049
3.14657	-4.94294	-2.518
3.12097	-4.90272	-2.66015
2.87923	-4.52297	-2.6023
2.84204	-4.46455	-2.72321
2.63579	-4.14054	-2.66699
2.50713	-3.93844	-2.67798
9.87653	-15.6171	2.25167
9.97322	-15.77	1.8316
9.92921	-15.7004	1.38981
10.3922	-16.4325	0.997505
9.39398	-14.8541	0.498851
9.21799	-14.5758	0.090805
10.0085	-15.8257	-0.343933
9.96721	-15.7605	-0.778814
15.6931	-24.8144	-1.96227
9.92106	-15.6875	-1.64089
11.2579	-17.8013	-2.37229
9.86612	-15.6006	-2.50338
9.00216	-14.2345	-2.67627
7.94506	-12.563	-2.7098
7.13126	-11.2762	-2.74511
6.48044	-10.2471	-2.78196
2.42095	-3.82808	-1.09492
5.4976	-8.69298	-2.85852
4.96358	-7.84857	-2.80692
4.5442	-7.18543	-2.78193
4.213	-6.66174	-2.77806
3.87655	-6.12972	-2.74127
3.61716	-5.71957	-2.73589
2.97466	-4.70363	-2.38704
3.18081	-5.0296	-2.72604
2.81612	-4.45294	-2.55562
2.82689	-4.46997	-2.72133
2.52097	-3.98624	-2.55922
2.46233	-3.89352	-2.64125
9.74138	-15.505	2.23216
10.0927	-16.0642	1.86077
10.046	-15.9899	1.41129
9.18706	-14.6227	0.896139
9.302	-14.8057	0.496762
9.29173	-14.7893	0.090805
9.9785	-15.8825	-0.344676
9.92784	-15.8018	-0.779467
9.94096	-15.8227	-1.21587
9.87553	-15.7186	-1.64107
9.88933	-15.7405	-2.08307
9.824	-15.6365	-2.50449
8.95148	-14.2478	-2.67367
7.90252	-12.5782	-2.70795
7.09361	-11.2907	-2.74345
2.39365	-3.80989	-0.975301
2.36738	-3.76808	-1.07415
2.38917	-3.80277	-1.19697
4.93011	-7.8471	-2.80096
4.52991	-7.21011	-2.78641
4.19522	-6.67739	-2.77943
3.85042	-6.12858	-2.73545
3.60116	-5.73184	-2.73666
2.99763	-4.77123	-2.41795
3.1678	-5.04208	-2.72775
2.97689	-4.73822	-2.7199
2.70652	-4.30788	-2.61429
2.61302	-4.15907	-2.66895
2.48189	-3.95034	-2.67594
9.96108	-15.9596	2.73482
10.4537	-16.7489	2.39965
9.83307	-15.7546	1.82343
10.2151	-16.3666	1.43989
8.95217	-14.3432	0.879276
10.7687	-17.2537	0.563005
9.09638	-14.5742	0.090805
9.65714	-15.4727	-0.332653
9.91582	-15.8871	-0.782541
9.82425	-15.7404	-1.20667
9.82358	-15.7393	-1.64014
9.84364	-15.7715	-2.0833
9.76708	-15.6488	-2.50171
8.89141	-14.2458	-2.66816
7.86204	-12.5966	-2.70684
7.04868	-11.2934	-2.73887
2.38027	-3.81367	-0.974379
2.36438	-3.78822	-1.0782
2.3789	-3.81147	-1.19752
2.38365	-3.81909	-1.31397
2.36661	-3.79178	-1.41951
2.36134	-3.78335	-1.53242
3.83813	-6.14946	-2.73981
3.56948	-5.71902	-2.7251
3.06859	-4.9165	-2.48953
3.15474	-5.05452	-2.72946
2.95619	-4.73642	-2.71362
2.7704	-4.43873	-2.69128
2.60344	-4.17124	-2.67189
2.47653	-3.9679	-2.68308
9.91822	-15.9965	2.29186
9.66875	-15.5941	1.80262
9.27601	-14.9607	1.32173
9.74547	-15.7178	0.953251
10.7681	-17.3671	0.565234
10.6308	-17.1457	0.090805
9.77767	-15.7698	-0.339987
10.3076	-16.6245	-0.821392
9.81535	-15.8305	-1.21169
12.7748	-20.6037	-2.17093
9.79052	-15.7905	-2.08191
9.71852	-15.6744	-2.50115
8.85014	-14.2738	-2.66849
7.8236	-12.6182	-2.70647
7.00381	-11.296	-2.7343
2.35972	-3.80583	-0.970229
2.32866	-3.75575	-1.06605
2.35643	-3.80054	-1.19146
2.36527	-3.81479	-1.3098
2.33937	-3.77303	-1.40926
2.34615	-3.78395	-1.52969
2.3522	-3.79371	-1.65223
2.35633	-3.80038	-1.77696
2.36655	-3.81686	-1.90871
2.35003	-3.79021	-2.02011
2.44016	-3.93557	-2.23514
2.40454	-3.87812	-2.33542
2.46977	-3.98333	-2.54257
2.40492	-3.87873	-2.61575
9.88354	-16.0404	2.73871
9.95584	-16.1577	2.31021
10.1485	-16.4704	1.89569
9.86007	-16.0023	1.40516
9.44792	-15.3334	0.930704
10.6493	-17.2831	0.562123
8.86226	-14.3829	0.090805
9.67275	-15.6983	-0.337295
10.2675	-16.6635	-0.821951
9.80564	-15.9139	-1.21629
12.7099	-20.6274	-2.16963
10.9229	-17.7271	-2.34418
9.6373	-15.6407	-2.49113
8.80921	-14.2968	-2.66816
7.78421	-12.6333	-2.70499
6.97121	-11.3138	-2.73388
2.33785	-3.79418	-0.965156
2.31918	-3.76388	-1.06655
2.32766	-3.77765	-1.18154
2.35461	-3.82138	-1.3098
2.32585	-3.7747	-1.40734
2.33458	-3.78888	-1.529
2.33476	-3.78916	-1.64714
2.34281	-3.80223	-1.77464
2.34918	-3.81256	-1.90302
2.33849	-3.79522	-2.01926
2.34197	-3.80086	-2.15165
2.35572	-3.82318	-2.29693
2.35437	-3.82099	-2.43089
2.34896	-3.81221	-2.56474
9.69975	-15.8534	2.26422
9.90654	-16.1914	1.8617
9.66085	-15.7898	1.38521
9.55923	-15.6237	0.944959
10.5834	-17.2977	0.561613
8.62706	-14.1002	0.090805
18.3844	-30.0477	-1.55191
9.78371	-15.9906	-1.22006
12.6035	-20.5993	-2.1622
10.9148	-17.8393	-2.35486
9.59019	-15.6743	-2.49169
8.74983	-14.3008	-2.66362
7.7373	-12.6459	-2.7024
6.93665	-11.3373	-2.7343
2.30967	-3.77495	-0.957779
2.30633	-3.7695	-1.06605
2.30876	-3.77346	-1.17768
2.34957	-3.84016	-1.31397
2.3209	-3.79331	-1.41182
2.3364	-3.81864	-1.53858
2.32478	-3.79966	-1.6486
2.3164	-3.78596	-1.76308
2.33623	-3.81837	-1.9022
2.31901	-3.79021	-2.01241
2.33001	-3.8082	-2.15165
2.33171	-3.81098	-2.28472
2.33598	-3.81795	-2.42403
2.33697	-3.81957	-2.56474
9.43292	-15.5266	2.64407
9.49685	-15.6319	1.79723
10.4233	-17.1569	1.49458
9.89909	-16.294	0.979896
10.4346	-17.1753	0.557388
8.52561	-14.0332	0.090805
9.80232	-16.1347	-0.347508
18.2588	-30.0541	-1.54912
9.75622	-16.0588	-1.22313
12.4705	-20.5265	-2.14993
10.802	-17.7801	-2.34209
9.55118	-15.7213	-2.49447
8.69359	-14.3097	-2.66006
7.69855	-12.6719	-2.70277
6.91319	-11.3791	-2.73929
6.25477	-10.2954	-2.76352
4.76419	-7.84189	-2.77237
2.29913	-3.78438	-1.40542
2.30097	-3.78742	-1.52216
2.32348	-3.82445	-1.6566
2.30642	-3.79637	-1.76462
2.33466	-3.84286	-1.91115
2.30991	-3.80212	-2.01498
2.32825	-3.83231	-2.16153
2.32431	-3.82583	-2.28942
2.3285	-3.83272	-2.42893
2.32764	-3.8313	-2.5678
9.93999	-16.4582	2.33925
9.60516	-15.9038	1.82417
9.54189	-15.7991	1.38144
9.91424	-16.4156	0.985114
9.7094	-16.0764	0.526843
9.6236	-15.9344	-0.34138
9.95349	-16.4806	-0.807044
9.69145	-16.0467	-1.22006
12.3591	-20.4636	-2.13953
10.7369	-17.7777	-2.33791
9.5192	-15.7615	-2.49698
8.6612	-14.3408	-2.66168
7.66027	-12.6836	-2.70092
6.88338	-11.3972	-2.73929
6.24993	-10.3484	-2.77366
2.27258	-3.76285	-1.05997
5.29356	-8.76486	-2.84528
4.81077	-7.96547	-2.81288
2.27844	-3.77255	-1.39838
4.09241	-6.77604	-2.79037
3.72831	-6.17317	-2.72526
3.47285	-5.7502	-2.71507
2.28303	-3.78015	-1.87536
2.28406	-3.78185	-2.00043
2.29696	-3.8032	-2.14088
2.32159	-3.844	-2.29693
2.31125	-3.82687	-2.42109
2.3176	-3.83738	-2.5678
9.49083	-15.8267	2.24889
9.64937	-16.091	1.84126
9.8616	-16.4449	1.43166
9.88008	-16.4758	0.986697
9.0213	-15.0437	0.498062
9.74888	-16.257	0.090805
9.09019	-15.1586	-0.319562
9.92735	-16.5546	-0.809373
14.9848	-24.9882	-1.94664
12.2671	-20.4562	-2.13451
10.6871	-17.8216	-2.3393
9.46761	-15.7879	-2.49642
8.59276	-14.3291	-2.65422
7.61432	-12.6974	-2.6987
6.83446	-11.397	-2.73388
6.21439	-10.363	-2.77228
5.67277	-9.45977	-2.79677
5.27391	-8.79463	-2.84969
4.79063	-7.98873	-2.81586
2.27438	-3.79269	-1.4035
2.26172	-3.77159	-1.50985
3.70889	-6.18485	-2.72526
3.48704	-5.81489	-2.74128
3.27845	-5.46706	-2.7474
2.90063	-4.83702	-2.57886
2.8806	-4.80362	-2.72259
2.7191	-4.5343	-2.72039
2.52429	-4.20944	-2.66699
2.38516	-3.97742	-2.65962
9.54514	-16.0185	2.71143
9.07332	-15.2267	1.74447
9.52763	-15.9891	1.39232
9.78802	-16.4261	0.982505
8.82777	-14.8146	0.491191
9.74951	-16.3615	0.090805
9.05499	-15.1959	-0.319887
9.55485	-16.0348	-0.779653
14.8945	-24.9957	-1.94385
12.1732	-20.4288	-2.12783
10.6139	-17.8121	-2.33396
9.42449	-15.816	-2.4967
8.54564	-14.3411	-2.65195
7.57481	-12.7119	-2.69721
6.8016	-11.4143	-2.73347
6.18343	-10.3769	-2.77136
5.65327	-9.48721	-2.80031
2.28711	-3.83818	-1.19036
4.77319	-8.01028	-2.81883
2.2599	-3.79251	-1.40094
4.03481	-6.77115	-2.77806
3.69352	-6.19839	-2.72672
3.46134	-5.80875	-2.73357
2.63373	-4.41988	-2.19994
2.28193	-3.8295	-2.01926
2.64029	-4.43089	-2.49996
2.52835	-4.24302	-2.53542
2.52592	-4.23895	-2.68168
2.35819	-3.95747	-2.64125
9.73256	-16.4503	2.32601
9.35194	-15.807	1.80429
9.62466	-16.2679	1.41255
9.84827	-16.6459	0.992753
8.69567	-14.6977	0.487292
9.11555	-15.4074	0.090805
9.56412	-16.1656	-0.345279
9.28266	-15.6899	-0.759343
14.8058	-25.0252	-1.94246
12.0816	-20.4207	-2.12281
10.5327	-17.8026	-2.32815
9.37879	-15.8524	-2.49782
8.50356	-14.373	-2.65292
7.53184	-12.7306	-2.6961
6.75973	-11.4255	-2.73097
6.14783	-10.3913	-2.76997
2.22356	-3.75834	-1.05237
5.20205	-8.79268	-2.83867
4.74606	-8.02194	-2.81764
4.35894	-7.36763	-2.80177
4.01065	-6.77894	-2.77601
3.67782	-6.21638	-2.72963
3.42804	-5.79418	-2.72124
3.23944	-5.47542	-2.74171
3.0348	-5.12953	-2.73031
2.85296	-4.82217	-2.72349
2.69304	-4.55187	-2.72133
2.50992	-4.24236	-2.67875
2.37377	-4.01223	-2.6739
9.46934	-16.1143	2.27653
9.51585	-16.1935	1.84312
9.51975	-16.2001	1.40474
9.5134	-16.1893	0.96648
8.54971	-14.5493	0.482603
9.20152	-15.6586	0.090805
9.41987	-16.0301	-0.340869
9.24922	-15.7397	-0.760554
14.7314	-25.069	-1.94246
12.0482	-20.5028	-2.12783
10.4748	-17.8253	-2.32699
9.32971	-15.8767	-2.49726
8.47387	-14.4203	-2.65714
7.49204	-12.7495	-2.69536
6.72283	-11.4405	-2.72973
6.11007	-10.3977	-2.76675
2.22416	-3.78494	-1.05845
5.18568	-8.82465	-2.84418
2.2344	-3.80236	-1.28538
4.32746	-7.36419	-2.79537
2.21949	-3.77699	-1.50369
3.66219	-6.23208	-2.73181
3.42205	-5.82342	-2.73049
3.21948	-5.4787	-2.73846
3.01499	-5.13072	-2.72604
2.8323	-4.81982	-2.71721
2.67952	-4.55984	-2.72133
2.36128	-4.01828	-2.52787
2.34617	-3.99256	-2.65553
9.68094	-16.5935	2.33739
8.8809	-15.2222	1.73499
9.76942	-16.7452	1.44645
9.07691	-15.5582	0.930797
9.66469	-16.5657	0.536081
9.23492	-15.829	0.090805
9.38861	-16.0925	-0.341751
9.19772	-15.7653	-0.760367
14.5933	-25.0135	-1.93423
11.9395	-20.4649	-2.11965
10.3947	-17.8169	-2.32141
9.26981	-15.8888	-2.49447
8.40068	-14.3991	-2.64806
7.44402	-12.7594	-2.6924
6.68193	-11.4531	-2.72765
6.07639	-10.4152	-2.76628
5.56332	-9.53575	-2.7993
2.23988	-3.83925	-1.18374
4.69408	-8.04584	-2.81586
4.3129	-7.39248	-2.80113
2.20856	-3.78557	-1.50438
3.63884	-6.23712	-2.7289
3.41118	-5.8469	-2.73666
3.13596	-5.37516	-2.67989
2.80574	-4.80915	-2.54463
2.4605	-4.21739	-2.36172
2.497	-4.27996	-2.54387
2.40225	-4.11755	-2.58764
2.32148	-3.97911	-2.64125
9.28408	-16.0223	2.25632
9.48465	-16.3685	1.85575
8.92647	-15.4052	1.33582
8.82737	-15.2341	0.911884
9.41099	-16.2414	0.526611
9.33933	-16.1177	0.090805
9.30373	-16.0562	-0.340034
9.07978	-15.6698	-0.753753
8.74842	-15.0979	-1.12938
11.8458	-20.4433	-2.11352
10.3129	-17.7978	-2.31468
9.23851	-15.9437	-2.49893
8.34407	-14.4001	-2.64352
7.40219	-12.7746	-2.69092
6.64595	-11.4695	-2.72681
6.04351	-10.4298	-2.76536
5.53209	-9.54719	-2.79778
5.11047	-8.81957	-2.83205
4.6788	-8.0746	-2.82122
4.29189	-7.40688	-2.80177
3.95744	-6.82969	-2.78216
3.639	-6.28012	-2.74345
3.37994	-5.83304	-2.7251
3.17771	-5.48404	-2.73113
2.97906	-5.14122	-2.72176
2.42468	-4.18447	-2.33838
2.64277	-4.56084	-2.71194
2.37865	-4.10504	-2.5749
2.25619	-3.8937	-2.578
9.19017	-15.9693	2.68026
9.27614	-16.1187	2.26561
9.23639	-16.0496	1.81841
9.53056	-16.5608	1.42692
8.8681	-15.4096	0.503586
9.13584	-15.8749	0.090805
9.17726	-15.9469	-0.336366
8.9346	-15.5252	-0.744529
14.4207	-25.0582	-1.93088
11.7543	-20.4249	-2.10776
10.2462	-17.8042	-2.31142
9.19413	-15.9762	-2.49976
8.3082	-14.4367	-2.64579
7.3623	-12.7931	-2.69018
6.61189	-11.4892	-2.72681
6.00866	-10.4409	-2.76352
2.17138	-3.77311	-1.04883
5.09579	-8.85469	-2.83867
4.66149	-8.10003	-2.82539
4.26423	-7.40973	-2.79793
3.94466	-6.85444	-2.78764
3.62128	-6.29251	-2.74418
3.38563	-5.88303	-2.74437
3.17327	-5.51403	-2.74171
2.9683	-5.15787	-2.72604
2.52279	-4.38372	-2.44969
2.64067	-4.58856	-2.72415
2.42125	-4.20729	-2.63662
2.30555	-4.00624	-2.65043
8.97155	-15.6842	2.20382
9.34958	-16.3451	1.84758
9.12361	-15.9501	1.37572
9.68055	-16.9237	1.00002
9.6686	-16.9028	0.542905
9.14887	-15.9942	0.090805
9.49983	-16.6078	-0.353403
8.79969	-15.3838	-0.735678
9.75166	-17.0481	-1.28256
11.6959	-20.447	-2.10683
10.1827	-17.8017	-2.30748
9.14932	-15.995	-2.49893
8.27919	-14.4739	-2.64871
7.31804	-12.7936	-2.68611
6.57693	-11.4979	-2.72473
5.97937	-10.4533	-2.7626
5.46235	-9.54939	-2.78917
5.06304	-8.85131	-2.83316
4.62889	-8.09232	-2.81824
4.24387	-7.41923	-2.79729
2.17051	-3.79453	-1.50027
3.59369	-6.28256	-2.73545
3.36105	-5.87586	-2.73666
3.16154	-5.52708	-2.74415
2.9521	-5.16092	-2.72347
2.55567	-4.46788	-2.49458
2.63304	-4.60313	-2.72884
2.32106	-4.05772	-2.53571
2.2737	-3.97493	-2.62493
8.89994	-15.6731	1.77233
9.03011	-15.9023	1.36958
9.74571	-17.1625	1.0112
8.86806	-15.6169	0.507764
9.10549	-16.0351	0.090805
9.64211	-16.9801	-0.362548
17.1889	-30.2703	-1.53253
14.2289	-25.0575	-1.92418
11.6031	-20.4334	-2.10145
10.113	-17.8094	-2.30422
9.08827	-16.0047	-2.49587
8.22101	-14.4775	-2.64449
7.2817	-12.8233	-2.68759
6.53788	-11.5134	-2.72349
5.94362	-10.4669	-2.76121
5.44379	-9.58669	-2.79525
2.15306	-3.79162	-1.15949
4.62041	-8.1367	-2.82896
4.2299	-7.449	-2.80369
3.91347	-6.89175	-2.79379
3.56382	-6.276	-2.72744
3.33164	-5.86713	-2.72741
2.87441	-5.06193	-2.50092
2.36012	-4.15625	-2.17157
2.38454	-4.19925	-2.33479
2.44155	-4.29965	-2.53824
2.4495	-4.31366	-2.69638
2.27054	-3.99851	-2.63615
9.68246	-17.1766	2.39663
9.07459	-16.0982	1.81488
8.54805	-15.1642	1.30806
9.07369	-16.0966	0.952505
8.43799	-14.9689	0.489752
9.14346	-16.2204	0.090805
9.52981	-16.9058	-0.359763
9.45826	-16.7789	-0.807417
14.153	-25.1073	-1.9246
11.4977	-20.3969	-2.09364
10.0444	-17.8186	-2.3012
9.03891	-16.0349	-2.49614
8.17355	-14.4998	-2.64384
7.23752	-12.8393	-2.68611
6.49976	-11.5305	-2.72266
5.91071	-10.4855	-2.76121
2.11396	-3.75015	-1.03616
5.01299	-8.893	-2.83646
4.59295	-8.14785	-2.82777
4.20648	-7.46225	-2.80369
3.88995	-6.90074	-2.79243
3.545	-6.28879	-2.72817
3.32769	-5.90329	-2.73974
3.11688	-5.52932	-2.7352
2.91429	-5.16991	-2.71833
2.7531	-4.88397	-2.72529
2.59886	-4.61035	-2.72321
2.43337	-4.31677	-2.69344
2.26135	-4.01161	-2.64023
9.21809	-16.4668	2.29767
8.72135	-15.5795	1.75654
8.88505	-15.8719	1.36275
9.42307	-16.833	0.990424
8.61818	-15.3952	0.500429
9.0484	-16.1637	0.090805
9.33408	-16.674	-0.352846
16.8856	-30.1638	-1.52126
14.0872	-25.1649	-1.92586
11.4255	-20.41	-2.09141
9.9798	-17.8275	-2.29841
9.00097	-16.079	-2.49893
8.10446	-14.4775	-2.63509
7.19459	-12.8521	-2.68425
6.45787	-11.5361	-2.71933
5.87577	-10.4962	-2.75937
2.12267	-3.79186	-1.0468
4.97813	-8.89274	-2.8315
4.56316	-8.15145	-2.8242
4.17784	-7.46313	-2.79921
3.84743	-6.87289	-2.77601
2.11306	-3.77469	-1.5984
3.31467	-5.92119	-2.7436
3.10225	-5.54174	-2.73683
2.90511	-5.18958	-2.72432
2.73772	-4.89056	-2.72439
2.58603	-4.61958	-2.72415
2.33368	-4.16879	-2.59351
2.27885	-4.07084	-2.67594
8.78636	-15.8054	1.77791
9.07639	-16.3272	1.39707
8.79843	-15.8272	0.935269
8.99118	-16.1739	0.520437
9.22196	-16.589	0.090805
8.69778	-15.6461	-0.324807
16.6834	-30.0112	-1.51045
13.9408	-25.0775	-1.91553
11.362	-20.4386	-2.09085
9.9201	-17.8449	-2.29679
8.94264	-16.0866	-2.49587
8.04709	-14.4756	-2.63023
7.15738	-12.8751	-2.68463
6.42552	-11.5586	-2.72016
5.84743	-10.5187	-2.76075
5.35092	-9.62556	-2.79221
2.10455	-3.7858	-1.15122
4.5371	-8.16161	-2.82301
4.15015	-7.46555	-2.79537
3.82702	-6.88427	-2.77601
2.10095	-3.77931	-1.59767
3.28543	-5.91003	-2.73357
3.08846	-5.55571	-2.73927
2.77464	-4.9912	-2.61223
2.62073	-4.71433	-2.61846
2.38527	-4.29076	-2.51946
2.40432	-4.32504	-2.68952
2.26927	-4.0821	-2.679
8.67879	-15.7216	1.7662
8.76853	-15.8842	1.35954
8.80454	-15.9494	0.940394
8.93542	-16.1865	0.520065
8.91656	-16.1523	0.090805
8.22325	-14.8964	-0.304243
16.6069	-30.0833	-1.51167
13.8914	-25.1642	-1.91916
11.2743	-20.4234	-2.08565
9.84791	-17.8395	-2.29214
8.88243	-16.0905	-2.49225
7.99171	-14.477	-2.62601
7.11725	-12.8929	-2.68388
6.38741	-11.5708	-2.7185
5.80962	-10.5241	-2.75752
5.32327	-9.64308	-2.79272
4.9197	-8.91202	-2.8282
4.51194	-8.17337	-2.82241
4.1344	-7.48944	-2.79985
3.82202	-6.92357	-2.78764
3.49068	-6.32336	-2.72963
3.26431	-5.91329	-2.73049
2.76644	-5.0114	-2.45781
2.86641	-5.19249	-2.71662
2.55491	-4.62821	-2.5646
2.23	-4.03964	-2.36265
2.39485	-4.33826	-2.69344
2.2056	-3.99544	-2.61575
8.71595	-15.9002	2.21125
8.7709	-16.0005	1.79314
8.58518	-15.6617	1.33973
8.87145	-16.1839	0.95148
8.72877	-15.9236	0.512406
8.56769	-15.6298	0.090805
8.25302	-15.0557	-0.307817
9.10001	-16.6009	-0.792044
13.785	-25.1476	-1.91455
11.2003	-20.4324	-2.08305
9.78157	-17.8442	-2.28889
8.83084	-16.1098	-2.49113
7.93733	-14.4798	-2.62212
7.07424	-12.9053	-2.68203
6.35023	-11.5845	-2.71725
5.77462	-10.5345	-2.75568
2.06094	-3.7597	-1.03161
4.89139	-8.92321	-2.82709
4.49777	-8.20514	-2.82896
4.11216	-7.50168	-2.79985
3.79694	-6.92664	-2.78422
3.47996	-6.34839	-2.73617
3.24764	-5.92457	-2.73126
3.05719	-5.57714	-2.7409
2.85968	-5.21682	-2.72518
2.70525	-4.93511	-2.73606
2.35382	-4.294	-2.51288
2.30989	-4.21386	-2.60919
2.23673	-4.08041	-2.6688
8.65484	-15.9005	1.77977
9.37804	-17.2292	1.4625
8.69827	-15.9803	0.939276
8.81913	-16.2023	0.519091
8.24208	-15.1422	0.090805
8.29912	-15.247	-0.312227
9.16819	-16.8436	-0.803504
13.6588	-25.0937	-1.90702
11.1025	-20.3973	-2.07581
9.70009	-17.8208	-2.28192
8.77827	-16.1273	-2.48974
7.89151	-14.4981	-2.62115
7.02934	-12.9142	-2.67944
6.31303	-11.5982	-2.716
5.74241	-10.5498	-2.75522
5.25763	-9.65921	-2.78816
2.0671	-3.79763	-1.14901
4.46884	-8.21006	-2.82598
2.05355	-3.77273	-1.36061
3.7593	-6.90651	-2.77122
3.46111	-6.35869	-2.73617
3.2274	-5.92931	-2.72895
3.04587	-5.59581	-2.74578
2.83814	-5.21417	-2.71919
2.68632	-4.93526	-2.73157
2.44069	-4.48399	-2.62368
2.36823	-4.35087	-2.69246
2.23202	-4.10062	-2.67798
8.60479	-15.9209	1.77921
8.67328	-16.0476	1.36637
8.38675	-15.5174	0.913375
8.79479	-16.2724	0.520251
8.994	-16.641	0.090805
9.10281	-16.8423	-0.353682
16.1807	-29.9382	-1.4962
13.5739	-25.1148	-1.90549
11.04	-20.4266	-2.07544
9.6264	-17.8111	-2.27681
8.73226	-16.1567	-2.4903
7.84189	-14.5093	-2.61888
6.98819	-12.9298	-2.67833
6.27394	-11.6082	-2.71392
5.70738	-10.56	-2.75337
5.22987	-9.67647	-2.78866
4.82281	-8.92332	-2.81772
4.44991	-8.23336	-2.82956
4.07297	-7.53595	-2.80369
3.75219	-6.94244	-2.78148
3.44134	-6.36729	-2.73545
2.04188	-3.77795	-1.70295
3.02317	-5.59358	-2.74008
