# .PCD v.7 - Point Cloud Data file format
VERSION .7
FIELDS x y z
SIZE 4 4 4
TYPE F F F
COUNT 1 1 1
WIDTH 1872
HEIGHT 1
VIEWPOINT 0 0 0 1 0 0 0
POINTS 1872
DATA ascii
31.234	-20.8069	-0.780528
31.2152	-20.7943	-1.65831
30.9671	-20.6291	-2.51111
17.5622	-11.6992	-2.37693
18.0125	-11.9992	-2.95096
15.6527	-10.4272	-2.99921
5.52216	-3.67864	-1.15934
5.37767	-3.58239	-1.28266
5.33187	-3.55188	-1.4272
5.3057	-3.53445	-1.57812
5.30563	-3.5344	-1.73722
5.36899	-3.57661	-1.92223
5.32046	-3.54428	-2.06935
5.32266	-3.54575	-2.23698
5.31502	-3.54066	-2.40299
5.49388	-3.65981	-2.66651
5.30076	-3.53116	-2.74496
5.34536	-3.56087	-2.94936
5.05567	-3.36789	-2.96048
4.75728	-3.16911	-2.94855
4.46075	-2.97158	-2.92073
4.21624	-2.80869	-2.91364
30.8378	-20.6675	4.43205
21.7147	-14.5532	2.52959
22.3492	-14.9785	1.97214
21.3621	-14.3169	1.29005
21.1262	-14.1588	0.090805
31.0038	-20.7788	-2.51906
17.4485	-11.694	-1.86884
17.5294	-11.7482	-2.37693
17.9905	-12.0572	-2.95291
15.6055	-10.4588	-2.99565
5.51839	-3.69843	-1.16082
5.5074	-3.69106	-1.31842
5.50946	-3.69244	-1.48069
5.4935	-3.68174	-1.64042
5.48259	-3.67443	-1.80172
5.45256	-3.6543	-1.95738
5.34675	-3.58339	-2.08407
5.30649	-3.55641	-2.23425
5.32523	-3.56897	-2.41245
5.31807	-3.56417	-2.58326
5.28329	-3.54086	-2.7409
5.3444	-3.58182	-2.9545
5.04179	-3.37901	-2.95779
4.74548	-3.18042	-2.94668
4.45533	-2.98597	-2.92268
4.1898	-2.80801	-2.90038
30.7958	-20.7799	4.43531
21.5434	-14.5367	2.51547
21.9911	-14.8388	1.94591
22.6668	-15.2947	1.36598
22.1151	-14.9225	0.710208
17.4265	-11.7588	-1.37924
17.5008	-11.8089	-1.87888
20.9933	-14.1655	-2.87081
17.8753	-12.0616	-2.93983
15.571	-10.5067	-2.99532
5.51489	-3.72124	-1.16267
5.50551	-3.71491	-1.32092
5.51074	-3.71844	-1.48438
5.49794	-3.7098	-1.64549
5.49652	-3.70885	-1.81054
5.5455	-3.7419	-1.9967
5.49095	-3.70509	-2.14745
5.48068	-3.69816	-2.31565
5.49931	-3.71073	-2.49974
5.49195	-3.70576	-2.67653
5.28578	-3.56664	-2.74822
5.3526	-3.61174	-2.96562
5.01337	-3.38283	-2.94702
4.74132	-3.19926	-2.95043
4.43726	-2.9941	-2.91681
4.18951	-2.82693	-2.9065
23.834	-16.1915	3.46034
21.2292	-14.4219	2.48519
21.3536	-14.5064	1.89596
21.285	-14.4598	1.29079
21.3239	-14.4863	0.689319
21.8838	-14.8667	0.090805
17.3879	-11.8123	-1.3791
17.4324	-11.8426	-1.87535
20.9059	-14.2023	-2.86477
17.4917	-11.8829	-2.8811
15.5183	-10.5423	-2.99143
5.50643	-3.74076	-1.16342
5.1734	-3.51452	-1.23858
5.28332	-3.58919	-1.42259
5.44945	-3.70205	-1.63384
5.45304	-3.70449	-1.79952
5.53056	-3.75715	-1.99551
5.48869	-3.72871	-2.15129
5.48147	-3.72381	-2.32112
5.5015	-3.73741	-2.50629
5.50776	-3.74167	-2.69041
5.27152	-3.58118	-2.74659
5.33824	-3.6265	-2.96391
5.03228	-3.41865	-2.96497
4.72978	-3.21315	-2.94949
4.42927	-3.009	-2.91779
4.18915	-2.84587	-2.91262
30.8274	-21.0763	4.45784
20.343	-13.9083	2.38988
21.6728	-14.8175	1.92666
22.1788	-15.1634	1.34371
21.8288	-14.9241	0.704731
21.8892	-14.9654	0.090805
23.2681	-15.9081	-0.5636
17.3527	-11.8639	-1.3791
17.2574	-11.7987	-1.85955
17.3856	-11.8863	-2.37205
17.5528	-12.0007	-2.89752
15.4788	-10.5827	-2.98981
5.16941	-3.53427	-1.24025
5.15055	-3.52137	-1.38754
5.16053	-3.5282	-1.54571
5.16111	-3.5286	-1.70194
5.21678	-3.56666	-1.88113
5.19762	-3.55356	-2.03669
5.22062	-3.56928	-2.21099
5.37965	-3.67801	-2.45391
5.42656	-3.71008	-2.65495
5.25786	-3.59474	-2.74496
5.32298	-3.63926	-2.96134
5.01917	-3.43155	-2.96318
4.71585	-3.22418	-2.94668
4.4232	-3.0241	-2.91974
4.18069	-2.85829	-2.91262
30.822	-21.2071	4.46597
21.8864	-15.059	2.56935
21.7323	-14.9529	1.93545
20.7857	-14.3016	1.26741
21.1272	-14.5366	0.686208
31.0073	-21.3346	0.090805
30.9745	-21.3121	-2.53832
17.2798	-11.8894	-1.86606
20.7509	-14.2777	-2.85478
17.7831	-12.2357	-2.94289
15.4408	-10.6241	-2.98851
13.4925	-9.28358	-2.99494
12.0052	-8.26021	-3.00666
10.5527	-7.26082	-2.94428
9.43775	-6.49367	-2.9082
8.50201	-5.84982	-2.86844
5.17629	-3.56156	-1.86981
5.14179	-3.53782	-2.01813
5.13104	-3.53043	-2.17611
5.13082	-3.53027	-2.34115
5.14642	-3.54101	-2.51851
5.19449	-3.57408	-2.71649
5.21833	-3.59049	-2.90744
5.0016	-3.44136	-2.95869
4.71209	-3.24216	-2.95043
4.41134	-3.03523	-2.91779
4.17361	-2.87166	-2.91364
30.8177	-21.3392	4.47433
21.912	-15.1726	2.57734
22.1405	-15.3308	1.97395
22.0966	-15.3004	1.34418
23.2078	-16.0698	0.746185
31.0014	-21.4664	0.090805
31.0276	-21.4845	-2.54822
17.2428	-11.9395	-1.86587
20.733	-14.3562	-2.85826
17.7337	-12.2794	-2.94066
15.3995	-10.6631	-2.98657
13.4924	-9.34259	-3.00123
11.9774	-8.29357	-3.00583
10.5583	-7.31093	-2.95212
9.44867	-6.54257	-2.91782
8.51464	-5.89582	-2.87891
7.79957	-5.40068	-2.86947
7.13922	-4.94343	-2.84339
6.63477	-4.59413	-2.84646
6.22159	-4.30803	-2.86421
5.86417	-4.06055	-2.88851
5.24244	-3.63004	-2.74822
5.09025	-3.52466	-2.83984
4.99431	-3.45822	-2.96048
4.7068	-3.25914	-2.95325
4.40518	-3.05029	-2.91974
4.16507	-2.88403	-2.91364
30.7934	-21.4578	4.47991
30.763	-21.4366	3.58893
21.283	-14.8307	1.90475
21.3823	-14.8999	1.30617
21.8477	-15.2241	0.709048
23.3845	-16.2951	0.090805
31.1573	-21.7114	-0.79088
31.1433	-21.7016	-1.67936
31.0259	-21.6198	-2.55352
24.8796	-17.3369	-2.73831
20.6528	-14.3915	-2.85292
17.7085	-12.3399	-2.94261
15.3581	-10.702	-2.98462
13.4711	-9.38708	-3.00272
5.05108	-3.51975	-1.21779
5.04875	-3.51813	-1.36725
9.43715	-6.57611	-2.92035
8.48923	-5.91556	-2.87616
7.77724	-5.41943	-2.86709
7.15406	-4.98518	-2.85555
6.64115	-4.62777	-2.85536
6.23629	-4.34564	-2.8773
5.92023	-4.12541	-2.9232
5.6184	-3.91508	-2.95809
5.03231	-3.50667	-2.81246
4.98696	-3.47507	-2.96228
4.69566	-3.27209	-2.95231
4.39897	-3.06534	-2.92171
4.15226	-2.89342	-2.91058
21.7593	-15.253	3.1983
21.609	-15.1477	2.55281
21.6614	-15.1844	1.94061
21.5108	-15.0788	1.31586
21.5775	-15.1256	0.702595
21.6652	-15.187	0.090805
22.0621	-15.4653	-0.534726
30.7423	-21.55	-1.65999
30.7939	-21.5861	-2.53887
24.8523	-17.4212	-2.74073
20.5979	-14.4389	-2.85083
17.6675	-12.3847	-2.9415
15.3168	-10.7369	-2.98235
13.4561	-9.43256	-3.00531
5.00599	-3.50914	-1.20864
5.03093	-3.52663	-1.36495
5.02703	-3.52389	-1.51633
5.02189	-3.52029	-1.66776
5.07467	-3.55728	-1.843
5.04556	-3.53688	-1.99124
5.43861	-3.8124	-2.32659
6.11429	-4.28605	-2.82493
5.90567	-4.1398	-2.92166
5.60296	-3.9276	-2.95565
5.00029	-3.50515	-2.79962
4.98163	-3.49206	-2.96497
4.6894	-3.28721	-2.95419
4.39753	-3.08262	-2.9266
4.14275	-2.90402	-2.90956
30.804	-21.7298	4.49919
23.9299	-16.8807	2.82294
22.0336	-15.543	1.97632
22.0014	-15.5203	1.34641
22.222	-15.6759	0.722185
21.6494	-15.272	0.090805
22.039	-15.5468	-0.535376
30.6864	-21.6469	-1.66045
30.6808	-21.6429	-2.53469
24.7175	-17.4363	-2.73125
20.5355	-14.4862	-2.84804
17.6177	-12.4279	-2.93927
15.28	-10.7789	-2.98138
13.4232	-9.46904	-3.0042
4.96038	-3.49917	-1.19949
10.475	-7.38933	-2.94658
4.96912	-3.50533	-1.50113
4.991	-3.52077	-1.6606
5.04381	-3.55801	-1.83525
5.01956	-3.54091	-1.98483
5.03566	-3.55227	-2.15216
5.02677	-3.546	-2.31133
5.0368	-3.55307	-2.48382
5.07171	-3.5777	-2.67256
4.96771	-3.50434	-2.78679
4.96102	-3.49961	-2.95869
4.67818	-3.30009	-2.95325
4.38124	-3.09063	-2.92171
4.13412	-2.9163	-2.90956
30.7383	-21.8365	4.50012
20.8137	-14.7861	2.47274
20.9849	-14.9077	1.8908
21.2316	-15.0829	1.30533
23.13	-16.4315	0.749527
21.5579	-15.3147	0.090805
21.7347	-15.4403	-0.52818
30.7536	-21.8474	-2.54711
24.6125	-17.4847	-2.72586
20.4646	-14.5381	-2.84479
17.5619	-12.476	-2.93677
15.2265	-10.8169	-2.97781
13.3741	-9.50098	-3.00012
4.92962	-3.502	-1.1945
10.4854	-7.44882	-2.95673
9.39128	-6.67157	-2.92491
8.44146	-5.99682	-2.87836
7.73085	-5.492	-2.86828
7.08999	-5.03673	-2.84787
6.62186	-4.70417	-2.86562
6.189	-4.39667	-2.87367
5.07615	-3.60609	-2.51003
5.04493	-3.58392	-2.66443
4.93101	-3.50299	-2.77224
4.9523	-3.51812	-2.96048
4.67153	-3.31866	-2.95607
4.37666	-3.10918	-2.92562
4.12583	-2.93099	-2.91058
30.7854	-21.9996	4.51568
20.8274	-14.8835	2.47906
21.336	-15.247	1.92456
21.3665	-15.2688	1.31548
22.9864	-16.4263	0.746742
22.4133	-16.0168	0.090805
21.7598	-15.5498	-0.53013
30.9879	-22.1443	-2.5725
24.5603	-17.5511	-2.72549
20.4078	-14.5836	-2.84246
17.5254	-12.5238	-2.93649
15.185	-10.8514	-2.97554
13.3315	-9.52687	-2.99642
4.89435	-3.49755	-1.18785
10.4598	-7.47468	-2.95534
9.37891	-6.70227	-2.92694
8.42312	-6.01925	-2.87781
7.72481	-5.52023	-2.87186
7.09439	-5.06973	-2.85555
6.61482	-4.72702	-2.86835
6.21156	-4.43885	-2.8904
5.88437	-4.20503	-2.93014
5.55965	-3.97298	-2.95159
4.90797	-3.50729	-2.76454
4.93082	-3.52362	-2.9533
4.68092	-3.34504	-2.96827
4.36512	-3.11936	-2.92366
4.11903	-2.9435	-2.9116
30.7797	-22.1338	4.52428
20.7913	-14.951	2.47999
20.5845	-14.8023	1.86374
21.1038	-15.1758	1.303
21.5269	-15.48	0.706402
22.8674	-16.444	0.090805
21.673	-15.5851	-0.52897
21.8207	-15.6913	-1.16257
21.8123	-15.6853	-1.78788
24.4095	-17.5529	-2.71416
20.3499	-14.6337	-2.84037
17.4737	-12.5654	-2.93398
15.1399	-10.8872	-2.97295
13.3032	-9.56638	-2.99642
4.86648	-3.4995	-1.18328
4.92964	-3.54492	-1.34788
4.91511	-3.53447	-1.49404
4.90421	-3.52663	-1.6413
4.91211	-3.53231	-1.79713
7.07317	-5.08633	-2.85299
6.59161	-4.74004	-2.86425
6.19987	-4.45834	-2.89113
5.86887	-4.22032	-2.9286
5.56267	-4.00013	-2.95972
4.87259	-3.50389	-2.74999
4.9189	-3.53719	-2.95241
4.67098	-3.35891	-2.96827
4.36009	-3.13535	-2.9266
4.10748	-2.9537	-2.90956
30.775	-22.2692	4.5331
23.2603	-16.8315	2.76944
22.5237	-16.2985	2.03492
21.1639	-15.3145	1.30906
21.4792	-15.5427	0.706355
22.6257	-16.3723	0.090805
31.1271	-22.524	-0.801232
21.7854	-15.7642	-1.16322
21.7786	-15.7593	-1.78899
24.3009	-17.5844	-2.70766
20.2774	-14.673	-2.83619
17.4299	-12.6125	-2.93287
15.0932	-10.9216	-2.97003
13.2541	-9.59083	-2.99161
4.8323	-3.49672	-1.17704
4.87968	-3.531	-1.33636
4.89677	-3.54337	-1.49151
4.89217	-3.54004	-1.64075
4.91552	-3.55694	-1.80249
4.88138	-3.53223	-1.94514
4.86919	-3.52341	-2.09676
4.89315	-3.54075	-2.26768
5.19698	-3.76061	-2.58866
5.23549	-3.78847	-2.78645
4.84167	-3.5035	-2.73801
4.8968	-3.54339	-2.94522
4.64239	-3.3593	-2.95607
4.34795	-3.14623	-2.92464
4.10288	-2.9689	-2.91262
30.7708	-22.4138	4.54263
21.1728	-15.4225	2.53461
21.1565	-15.4106	1.92108
21.1722	-15.4221	1.31232
22.6069	-16.4671	0.74015
22.7374	-16.5622	0.090805
22.4808	-16.3753	-0.554919
31.0744	-22.6349	-1.702
21.8166	-15.8915	-2.42731
20.2216	-14.7296	-2.8348
17.3854	-12.6637	-2.93203
15.0524	-10.9643	-2.96873
13.2191	-9.62895	-2.9905
4.80074	-3.49691	-1.17163
10.4072	-7.58075	-2.95995
9.29736	-6.7723	-2.92035
8.38057	-6.1045	-2.88222
7.65433	-5.5755	-2.86411
7.00215	-5.10044	-2.83635
4.81252	-3.50549	-2.07624
4.86544	-3.54404	-2.25968
4.8883	-3.56069	-2.43526
4.89866	-3.56824	-2.60749
4.82626	-3.5155	-2.73545
4.87408	-3.55034	-2.93804
4.63182	-3.37386	-2.95607
4.33945	-3.1609	-2.92562
4.09631	-2.9838	-2.91466
30.7633	-22.5318	4.55006
23.1341	-16.944	2.76609
22.3265	-16.3525	2.02599
21.0544	-15.4208	1.30784
22.1088	-16.193	0.727059
22.8247	-16.7174	0.090805
21.9055	-16.0442	-0.5396
31.0972	-22.7764	-1.70676
30.949	-22.6678	-2.59175
21.7524	-15.932	-2.42471
20.1702	-14.7731	-2.83294
17.3426	-12.7021	-2.93037
15.0173	-10.999	-2.96744
13.1796	-9.65307	-2.98716
4.76789	-3.49213	-1.1654
10.3811	-7.60337	-2.95811
9.28429	-6.80005	-2.92187
8.36301	-6.12528	-2.88167
7.65973	-5.61018	-2.87186
7.04838	-5.16242	-2.86131
6.57577	-4.81626	-2.87588
6.15773	-4.51008	-2.88967
5.81098	-4.25611	-2.91781
5.50544	-4.03232	-2.94752
4.82142	-3.53133	-2.73801
4.90226	-3.59054	-2.96138
4.62724	-3.38911	-2.95888
4.33819	-3.1774	-2.93052
4.08432	-2.99146	-2.9116
30.7547	-22.6743	4.55912
22.4412	-16.5451	2.69197
22.6363	-16.6889	2.05738
22.675	-16.7174	1.40455
22.539	-16.6172	0.740939
22.3326	-16.465	0.090805
31.1027	-22.9309	-1.71123
30.9418	-22.8123	-2.59733
21.8433	-16.1043	-2.44106
20.0997	-14.8188	-2.82946
17.2819	-12.7413	-2.92675
14.9699	-11.0368	-2.96484
13.1397	-9.68743	-2.98494
4.73958	-3.49432	-1.16082
4.77914	-3.52348	-1.31607
9.25665	-6.82459	-2.91985
8.33909	-6.1481	-2.88001
7.57906	-5.58777	-2.84743
7.03366	-5.18566	-2.86195
6.55153	-4.8302	-2.87177
6.14653	-4.53161	-2.89113
5.79609	-4.27325	-2.91704
5.5148	-4.06586	-2.95972
4.80448	-3.54217	-2.73459
4.89959	-3.61229	-2.96677
4.61799	-3.40468	-2.95982
4.31977	-3.18481	-2.92464
4.09152	-3.01653	-2.92384
22.9879	-17.0537	3.43804
21.7651	-16.1465	2.61914
22.4985	-16.6906	2.04971
22.3958	-16.6144	1.39123
22.7497	-16.877	0.74846
22.3511	-16.5812	0.090805
21.1439	-15.6857	-0.520428
22.1568	-16.4371	-1.19574
21.9265	-16.2663	-1.81829
23.9721	-17.7838	-2.69391
20.0365	-14.8641	-2.82667
17.236	-12.7866	-2.92535
14.9229	-11.0706	-2.96192
13.073	-9.69827	-2.97605
4.70405	-3.48971	-1.15417
4.77179	-3.53997	-1.31699
4.76114	-3.53207	-1.46112
4.73401	-3.51194	-1.5994
4.78403	-3.54905	-1.76793
4.75999	-3.53121	-1.91185
4.84363	-3.59327	-2.10428
5.85475	-4.34337	-2.75582
5.72262	-4.24534	-2.88543
5.49831	-4.07894	-2.95728
4.78378	-3.54887	-2.7286
4.77546	-3.54269	-2.89585
4.60503	-3.41626	-2.95794
4.3173	-3.20281	-2.92954
4.06597	-3.01636	-2.9116
30.7629	-22.9634	4.58003
21.1218	-15.7667	2.54984
21.1475	-15.7858	1.93614
21.1681	-15.8012	1.32266
22.7621	-16.991	0.75027
23.9574	-17.8833	0.090805
21.1245	-15.7687	-0.521217
22.0983	-16.4956	-1.19518
21.8558	-16.3145	-1.81634
23.8458	-17.8001	-2.68536
19.9764	-14.9116	-2.82435
17.1901	-12.8318	-2.92396
14.8852	-11.1113	-2.96095
13.0505	-9.74172	-2.97754
4.67329	-3.48844	-1.14876
10.2805	-7.67399	-2.94889
9.18187	-6.85394	-2.9087
4.69276	-3.50297	-1.58838
4.75359	-3.54838	-1.76019
4.72368	-3.52605	-1.90096
4.74409	-3.54129	-2.06392
4.73707	-3.53605	-2.21748
4.74428	-3.54143	-2.38207
4.78925	-3.575	-2.57007
4.74426	-3.54142	-2.71149
4.67899	-3.4927	-2.84199
4.59346	-3.42885	-2.957
4.30638	-3.21456	-2.92856
4.05839	-3.02944	-2.91262
22.6753	-17.0375	3.4076
30.6961	-23.064	3.6729
31.1291	-23.3894	2.81354
20.9251	-15.7224	1.31138
21.9413	-16.486	0.727988
22.6603	-17.0262	0.090805
31.1026	-23.3694	-1.72343
30.9138	-23.2276	-2.6131
23.8328	-17.9072	-2.69038
19.9215	-14.9683	-2.82318
17.1386	-12.8774	-2.92201
14.7997	-11.12	-2.95058
13.0088	-9.7744	-2.97494
4.64041	-3.48666	-1.14294
10.2952	-7.73548	-2.96042
9.23919	-6.94202	-2.93454
8.28755	-6.227	-2.88167
7.49598	-5.63223	-2.83492
6.97267	-5.23904	-2.85619
6.4969	-4.88156	-2.86699
6.06791	-4.55923	-2.87294
4.8128	-3.61618	-2.42369
4.76047	-3.57686	-2.5603
4.72155	-3.54762	-2.70464
4.66657	-3.5063	-2.84109
4.58549	-3.44539	-2.95888
4.29905	-3.23017	-2.93052
4.06673	-3.0556	-2.92588
30.744	-23.2431	4.59792
22.1212	-16.724	2.67803
23.1594	-17.509	2.121
31.0379	-23.4652	1.90532
22.098	-16.7065	0.733976
22.6432	-17.1187	0.090805
26.3965	-19.9563	-2.22316
23.6985	-17.9166	-2.6809
19.8485	-15.0058	-2.819
17.094	-12.9234	-2.9209
14.784	-11.177	-2.95414
12.9766	-9.81059	-2.9742
4.61444	-3.48861	-1.13878
10.2893	-7.7789	-2.96549
9.2309	-6.97874	-2.93859
8.25831	-6.24344	-2.87781
7.49294	-5.66481	-2.84028
6.95861	-5.26084	-2.85683
6.48539	-4.90308	-2.86835
6.11083	-4.61991	-2.90058
5.75599	-4.35164	-2.9232
5.44358	-4.11545	-2.94752
4.9821	-3.76656	-2.86551
4.64046	-3.50828	-2.83122
4.57384	-3.45791	-2.95794
4.28667	-3.2408	-2.92856
4.05078	-3.06247	-2.92078
30.7328	-23.3697	4.60581
22.5404	-17.1401	2.73265
22.5037	-17.1122	2.0677
20.8581	-15.8608	1.31278
21.9776	-16.7122	0.090805
21.2746	-16.1776	-0.529712
26.1834	-19.9103	-2.20934
23.5866	-17.9357	-2.67366
19.7907	-15.0492	-2.81668
17.0437	-12.9603	-2.9184
14.7433	-11.2111	-2.9522
12.9476	-9.8456	-2.97383
4.6078	-3.50385	-1.13962
4.6334	-3.52332	-1.2884
4.608	-3.504	-1.42465
4.60936	-3.50504	-1.56963
7.47254	-5.68225	-2.83849
6.93786	-5.27567	-2.85427
6.47915	-4.92686	-2.87177
6.09642	-4.63583	-2.89986
5.73794	-4.36323	-2.92012
5.4437	-4.13948	-2.95403
5.08668	-3.868	-2.93396
4.60077	-3.49851	-2.81236
4.56698	-3.47281	-2.95982
4.28315	-3.25698	-2.93248
4.04084	-3.07273	-2.91976
30.7463	-23.5158	4.61743
22.9796	-17.5756	2.78987
21.7934	-16.6684	2.00939
20.8502	-15.9469	1.31492
23.1082	-17.6739	0.766239
20.5869	-15.7456	0.090805
23.1987	-17.7431	-0.587275
26.058	-19.9301	-2.20321
23.5902	-18.0426	-2.67998
19.7138	-15.0778	-2.81157
17.0011	-13.003	-2.91728
14.6994	-11.2426	-2.9496
12.9029	-9.86858	-2.96976
4.58556	-3.5072	-1.13629
4.61736	-3.53151	-1.28656
4.61663	-3.53096	-1.43073
4.61941	-3.53308	-1.5768
4.63291	-3.54341	-1.72921
4.59332	-3.51313	-1.86319
4.6113	-3.52688	-2.02219
4.98248	-3.81077	-2.35861
5.26837	-4.02943	-2.67962
5.10558	-3.90492	-2.77099
4.99832	-3.82288	-2.88776
4.56685	-3.49288	-2.7971
4.56007	-3.48769	-2.9617
4.27265	-3.26787	-2.9315
4.02678	-3.07982	-2.91568
30.7425	-23.6578	4.62719
30.7014	-23.6262	3.70504
20.6039	-15.8557	1.9088
21.0656	-16.211	1.33039
21.0156	-16.1725	0.090805
23.5003	-18.0846	-2.6757
19.6517	-15.1229	-2.80901
16.953	-13.0462	-2.91561
14.6566	-11.2789	-2.94766
12.8658	-9.90083	-2.96791
4.56429	-3.51244	-1.13338
10.1854	-7.83812	-2.95442
9.16321	-7.05153	-2.93606
8.18481	-6.2986	-2.87064
4.58758	-3.53036	-1.71551
4.56036	-3.50941	-1.85359
4.58592	-3.52908	-2.01536
4.59614	-3.53695	-2.17383
4.60556	-3.5442	-2.33659
4.63207	-3.5646	-2.5115
4.61161	-3.54885	-2.66357
4.54372	-3.49661	-2.78902
4.5441	-3.4969	-2.95794
4.26294	-3.28053	-2.9315
4.0299	-3.1012	-2.92486
30.7308	-23.8029	4.63648
20.5182	-15.8926	2.51213
21.412	-16.5849	1.98469
21.7838	-16.8729	1.37576
21.6398	-16.7614	0.090805
23.3678	-18.0998	-2.66678
19.6025	-15.1834	-2.80878
16.8963	-13.0872	-2.91283
14.6086	-11.3153	-2.94506
12.8284	-9.93639	-2.96643
11.4759	-8.88877	-2.9946
10.1961	-7.89749	-2.96503
9.19455	-7.12175	-2.95378
8.18778	-6.34194	-2.87891
7.40506	-5.73568	-2.83194
6.88463	-5.33257	-2.85171
6.43207	-4.98204	-2.8704
6.03282	-4.67279	-2.88895
5.69304	-4.40961	-2.91704
4.66707	-3.61494	-2.53753
4.61044	-3.57107	-2.66956
4.51293	-3.49554	-2.77646
4.52471	-3.50467	-2.95231
4.2595	-3.29925	-2.9364
4.01197	-3.10752	-2.91874
30.717	-23.947	4.64554
30.6732	-23.9129	3.71935
21.7559	-16.9609	1.37725
20.807	-16.2211	0.703338
21.0334	-16.3977	0.090805
25.4635	-19.8514	-0.658811
23.2872	-18.1547	-2.664
19.5124	-15.2119	-2.80251
16.8426	-13.1305	-2.9106
14.5605	-11.3514	-2.94247
12.7909	-9.9718	-2.96495
11.4525	-8.92839	-2.99585
10.1681	-7.92709	-2.9641
9.1645	-7.14465	-2.95125
8.16478	-6.36527	-2.87781
7.41411	-5.78004	-2.84267
6.87083	-5.35651	-2.85299
6.41046	-4.9976	-2.86767
6.01664	-4.69058	-2.88822
5.70244	-4.44563	-2.92937
5.37472	-4.19014	-2.94345
5.01407	-3.90897	-2.91856
4.4836	-3.49542	-2.76479
4.5304	-3.5319	-2.96358
4.27112	-3.32977	-2.95207
4.0049	-3.12223	-2.92078
30.7146	-24.092	4.65576
30.6805	-24.0652	3.72864
20.4422	-16.0345	1.90754
22.2305	-17.4372	1.40837
20.4992	-16.0792	0.695678
20.9375	-16.423	0.090805
25.3306	-19.8689	-0.656629
25.3681	-19.8983	-1.41272
25.4013	-19.9243	-2.16665
23.2019	-18.1992	-2.66028
19.4656	-15.2685	-2.80228
16.7973	-13.1755	-2.90949
14.5159	-11.386	-2.9402
12.752	-10.0024	-2.96272
11.3983	-8.9406	-2.98837
4.48965	-3.5216	-1.26119
4.4742	-3.50948	-1.39781
4.4685	-3.50501	-1.53766
7.38791	-5.79494	-2.83909
6.87131	-5.38973	-2.86003
6.39708	-5.01776	-2.86835
6.01882	-4.72106	-2.89622
5.68051	-4.45569	-2.92474
5.37233	-4.21396	-2.94915
5.01809	-3.9361	-2.92797
4.45352	-3.49326	-2.75222
4.50878	-3.53661	-2.95607
4.26808	-3.34781	-2.95697
4.00781	-3.14365	-2.92996
30.7022	-24.2298	4.66459
30.6559	-24.1932	3.73421
22.152	-17.482	1.40679
30.9141	-24.397	1.00513
20.84	-16.4466	0.090805
25.1114	-19.8176	-0.651894
25.2054	-19.8918	-1.40657
25.2481	-19.9254	-2.15828
23.0962	-18.2272	-2.65415
19.4047	-15.3139	-2.79995
16.7395	-13.2106	-2.90615
14.4619	-11.4131	-2.93599
12.713	-10.0329	-2.9605
11.3655	-8.96953	-2.9867
4.46696	-3.52526	-1.25751
4.46984	-3.52754	-1.39983
4.44299	-3.50634	-1.53215
4.48416	-3.53883	-1.69168
4.44724	-3.50969	-1.8235
4.46279	-3.52197	-1.97842
4.5599	-3.59861	-2.17747
4.95741	-3.91232	-2.54703
4.91805	-3.88126	-2.6986
4.84036	-3.81995	-2.82786
4.43192	-3.49761	-2.74504
4.47886	-3.53465	-2.94292
4.26087	-3.36262	-2.95893
3.99846	-3.15553	-2.92996
30.7107	-24.3759	4.67597
30.6724	-24.3455	3.74424
20.8275	-16.5314	0.708166
25.0596	-19.8905	0.090805
25.0513	-19.8839	-0.651755
25.0637	-19.8937	-1.40145
25.0783	-19.9053	-2.1481
23.0203	-18.2718	-2.65118
19.3307	-15.3433	-2.79531
16.7072	-13.261	-2.90698
14.4223	-11.4474	-2.93436
12.6726	-10.0586	-2.95754
11.3313	-8.99394	-2.98421
10.0727	-7.99496	-2.95627
9.07604	-7.2039	-2.94264
8.07128	-6.40639	-2.86403
4.4279	-3.51455	-1.67321
4.4389	-3.52328	-1.82414
4.43528	-3.5204	-1.97021
4.44914	-3.53141	-2.12728
4.46223	-3.54179	-2.2888
4.48932	-3.5633	-2.46106
4.4672	-3.54574	-2.60881
4.41093	-3.50108	-2.73786
4.4828	-3.55812	-2.95231
4.2419	-3.36691	-2.95207
3.98155	-3.16026	-2.92384
30.7065	-24.5215	4.68619
30.6638	-24.4874	3.75186
20.4445	-16.3265	1.31092
21.0846	-16.8377	0.717264
20.6761	-16.5115	0.090805
24.8516	-19.8458	-0.647577
24.8687	-19.8596	-1.39334
24.91	-19.8925	-2.13833
22.9193	-18.3028	-2.64561
14.4623	-11.5492	-2.07355
14.6188	-11.6742	-2.53845
14.3836	-11.4864	-2.93339
12.6427	-10.0962	-2.95754
11.2969	-9.02141	-2.98213
10.1021	-8.06731	-2.97241
9.08335	-7.25374	-2.95226
8.10631	-6.4735	-2.88387
7.36839	-5.88421	-2.8516
6.8329	-5.45658	-2.86388
6.35305	-5.07339	-2.86835
5.96721	-4.76526	-2.89113
5.62844	-4.49473	-2.91781
4.49871	-3.59256	-2.47245
4.45666	-3.55898	-2.60881
4.39913	-3.51304	-2.73696
4.48465	-3.58133	-2.96076
4.23598	-3.38275	-2.95501
3.9735	-3.17314	-2.92486
30.6971	-24.6635	4.69571
30.6687	-24.6406	3.76115
20.5768	-16.5324	1.93656
20.7961	-16.7085	0.710162
24.7712	-19.9023	0.090805
24.7115	-19.8544	-0.645163
24.7412	-19.8782	-1.38924
24.7715	-19.9026	-2.13122
14.4464	-11.6069	-1.6381
14.4326	-11.5958	-2.07424
14.5748	-11.7101	-2.53678
14.3356	-11.5179	-2.93047
12.605	-10.1275	-2.95569
11.2655	-9.05121	-2.98088
10.11	-8.12285	-2.98209
9.05726	-7.27702	-2.95074
8.07508	-6.48789	-2.87946
7.34346	-5.90007	-2.84862
6.81372	-5.47446	-2.86259
6.33797	-5.09222	-2.86835
5.95885	-4.78761	-2.89404
5.63953	-4.53106	-2.93091
5.31984	-4.2742	-2.94752
4.95904	-3.98432	-2.92027
4.38729	-3.52495	-2.73606
4.48639	-3.60457	-2.96921
4.20689	-3.38001	-2.9413
3.95736	-3.17953	-2.91976
30.6905	-24.8172	4.7064
30.6577	-24.7907	3.76914
21.0264	-17.0025	1.35182
24.5919	-19.8857	0.090805
24.5542	-19.8552	-0.642331
24.5807	-19.8767	-1.38337
24.6096	-19.9	-2.12229
14.4052	-11.6485	-1.63754
14.4501	-11.6848	-2.08237
14.541	-11.7583	-2.53734
14.284	-11.5505	-2.92723
12.5609	-10.1571	-2.95273
11.2294	-9.08041	-2.9788
4.34612	-3.51439	-1.23353
4.31332	-3.48788	-1.36134
8.02924	-6.49268	-2.87009
7.31152	-5.91231	-2.84326
6.78912	-5.48988	-2.85939
6.32486	-5.11447	-2.86972
5.94233	-4.80514	-2.89331
5.62096	-4.54527	-2.9286
5.30354	-4.2886	-2.94589
4.95634	-4.00784	-2.92626
4.3762	-3.53872	-2.73606
4.45719	-3.60421	-2.957
4.21117	-3.40527	-2.95207
3.95939	-3.20168	-2.92894
30.6861	-24.9646	4.71685
30.655	-24.9393	3.77769
30.9438	-25.1742	2.88023
22.8123	-18.5589	1.46222
20.3214	-16.5324	0.699021
24.4459	-19.8879	0.090805
24.3866	-19.8397	-0.639082
24.4225	-19.8689	-1.37741
14.4535	-11.7586	-1.21211
14.3644	-11.6861	-1.6368
14.4077	-11.7214	-2.08121
16.4664	-13.3962	-2.89251
14.2359	-11.5816	-2.92431
12.5247	-10.1894	-2.95124
11.1948	-9.10752	-2.97672
4.32812	-3.52113	-1.23122
4.32697	-3.5202	-1.36944
4.32934	-3.52212	-1.50954
4.34082	-3.53147	-1.65534
4.30649	-3.50354	-1.78508
4.32258	-3.51663	-1.93737
4.29502	-3.4942	-2.07126
5.24097	-4.26378	-2.73126
4.99458	-4.06333	-2.77588
4.91638	-3.99971	-2.90915
4.35597	-3.54379	-2.72978
4.4273	-3.60182	-2.94386
4.20105	-3.41775	-2.95207
3.94854	-3.21233	-2.92792
30.6872	-25.1172	4.72824
30.6533	-25.0895	3.78642
20.6544	-16.9055	1.95721
20.6221	-16.879	1.33356
24.3001	-19.8894	0.090805
20.5012	-16.7801	-0.524281
24.2784	-19.8716	-1.37229
14.38	-11.7699	-1.20862
14.3497	-11.7451	-1.63921
14.356	-11.7502	-2.07866
16.4235	-13.4425	-2.89195
14.1939	-11.6175	-2.92269
12.4852	-10.219	-2.94902
11.1571	-9.13202	-2.97381
10.0148	-8.19701	-2.97563
8.95042	-7.32583	-2.93707
8.00099	-6.54873	-2.87395
4.30669	-3.52498	-1.6458
4.27702	-3.5007	-1.77676
4.30195	-3.5211	-1.93259
4.30337	-3.52227	-2.08072
4.3086	-3.52655	-2.23484
4.34484	-3.55621	-2.409
4.32675	-3.5414	-2.55576
4.3164	-3.53293	-2.71092
4.32504	-3.54	-2.88095
4.19224	-3.43131	-2.95305
3.93633	-3.22185	-2.92588
30.6664	-25.2615	4.73707
30.6481	-25.2464	3.79534
17.206	-14.1735	0.090805
24.0844	-19.8395	-0.63365
24.1156	-19.8652	-1.36623
14.3583	-11.8277	-1.21001
14.2912	-11.7724	-1.63661
14.3144	-11.7915	-2.07796
16.3873	-13.4991	-2.89307
14.1466	-11.6533	-2.92042
12.447	-10.2532	-2.94754
11.1209	-9.16081	-2.97173
4.21791	-3.4745	-1.20402
8.9647	-7.38467	-2.94973
8.02935	-6.61418	-2.89214
7.25904	-5.97964	-2.84386
6.71562	-5.53199	-2.84915
6.27673	-5.17046	-2.86904
5.88266	-4.84584	-2.88531
4.94419	-4.07278	-2.5848
4.32237	-3.56055	-2.40249
4.31281	-3.55268	-2.55405
4.28872	-3.53284	-2.70015
4.24438	-3.49631	-2.83306
4.17875	-3.44224	-2.9511
3.93283	-3.23967	-2.93098
30.6721	-25.4012	4.74798
30.6464	-25.3799	3.80314
20.3858	-16.8826	0.705334
17.1796	-14.2274	0.090805
20.3981	-16.8928	-0.524095
23.9697	-19.8506	-1.36055
14.3442	-11.8792	-1.21155
14.2343	-11.7882	-1.63346
14.3033	-11.8454	-2.08098
16.3397	-13.5318	-2.89084
14.0963	-11.6739	-2.91621
12.4126	-10.2795	-2.94569
11.0908	-9.1849	-2.97007
4.21479	-3.4905	-1.20586
8.93937	-7.40318	-2.94771
8.02237	-6.64376	-2.896
7.23454	-5.99131	-2.84028
6.6909	-5.5411	-2.84467
6.26462	-5.18808	-2.86972
5.89004	-4.87786	-2.89549
5.5987	-4.63659	-2.94556
5.24177	-4.341	-2.93938
4.89521	-4.05399	-2.9177
4.5286	-3.75038	-2.86264
4.21617	-3.49164	-2.81992
4.17106	-3.45428	-2.95207
3.91903	-3.24556	-2.9269
30.6654	-25.5585	4.75913
30.6323	-25.5309	3.81113
20.3388	-16.9516	0.70552
17.2024	-14.3376	0.090805
20.3634	-16.9721	-0.524652
23.8182	-19.8516	-1.35515
18.097	-15.0832	-1.55656
14.1696	-11.8099	-1.63011
14.3134	-11.9297	-2.08818
14.2767	-11.8992	-2.5212
14.0535	-11.7131	-2.91491
12.3681	-10.3084	-2.94273
11.0604	-9.21844	-2.96965
4.18138	-3.48503	-1.19894
8.90567	-7.42256	-2.94416
8.01475	-6.68001	-2.90096
7.20541	-6.00545	-2.83611
6.69529	-5.58029	-2.85427
6.26995	-5.22578	-2.87998
5.86753	-4.89038	-2.89186
5.56851	-4.64116	-2.93708
5.23513	-4.36329	-2.94345
4.888	-4.07398	-2.92113
4.61427	-3.84583	-2.92637
4.18619	-3.48904	-2.80677
4.15215	-3.46067	-2.9462
3.91542	-3.26337	-2.932
30.6548	-25.6951	4.76843
30.628	-25.6726	3.8193
31.1478	-26.1084	2.93282
20.299	-17.0148	0.705752
16.2136	-13.5903	0.090805
23.6258	-19.8033	-0.624923
23.6662	-19.8372	-1.34928
18.1144	-15.1836	-1.56201
14.1549	-11.8647	-1.63234
11.354	-9.51698	-1.6417
14.2526	-11.9466	-2.52287
14.0071	-11.7409	-2.91199
12.3302	-10.3353	-2.9405
11.0241	-9.2405	-2.96674
4.15373	-3.48169	-1.19341
4.18741	-3.50992	-1.33956
4.19325	-3.51482	-1.47812
4.20519	-3.52482	-1.62138
4.15012	-3.47866	-1.73898
4.16542	-3.49149	-1.88744
5.851	-4.90435	-2.8904
5.54846	-4.65076	-2.93322
5.22152	-4.37672	-2.94264
4.88631	-4.09574	-2.92712
4.60351	-3.8587	-2.92637
4.16425	-3.49051	-2.79832
4.14515	-3.47449	-2.94816
3.90366	-3.27208	-2.92996
30.6408	-25.8568	4.77934
30.6112	-25.8318	3.82766
30.8856	-26.0634	1.02908
16.1776	-13.6518	0.090805
23.479	-19.8132	-0.622463
23.5102	-19.8395	-1.34378
18.1326	-15.3015	-1.56828
14.2296	-12.0079	-1.64627
11.3284	-9.55971	-1.64263
11.4051	-9.62443	-2.00653
13.956	-11.7771	-2.9094
12.2869	-10.3685	-2.93828
10.9889	-9.27322	-2.9655
4.12729	-3.4829	-1.1888
4.15505	-3.50632	-1.33247
4.16101	-3.51135	-1.4704
4.18618	-3.53259	-1.6184
4.14869	-3.50096	-1.74347
4.16962	-3.51861	-1.89496
4.16744	-3.51678	-2.03852
4.16915	-3.51822	-2.18782
4.20161	-3.54561	-2.35694
4.27311	-3.60595	-2.55576
4.31888	-3.64458	-2.74773
4.13646	-3.49063	-2.78706
4.13627	-3.49047	-2.95011
3.90199	-3.29277	-2.9371
30.6442	-26.0157	4.79166
30.6088	-25.9857	3.83677
15.9078	-13.5051	1.06393
17.0518	-14.4763	0.610123
16.9893	-14.4233	0.090805
18.2103	-15.4598	-1.57958
14.4808	-12.2937	-1.68139
11.2833	-9.57913	-1.64007
11.3478	-9.63387	-2.00124
13.918	-11.8159	-2.90875
12.1931	-10.3515	-2.92273
10.9524	-9.29819	-2.963
4.10359	-3.48379	-1.18465
8.82024	-7.48805	-2.93808
7.95819	-6.7562	-2.90262
7.03709	-5.97422	-2.78964
6.65159	-5.64695	-2.85747
6.22799	-5.28733	-2.88272
4.13	-3.50622	-2.0247
4.15728	-3.52938	-2.18704
4.18689	-3.55451	-2.3545
4.1673	-3.53788	-2.49672
4.17044	-3.54055	-2.65706
4.11262	-3.49146	-2.77767
4.11925	-3.49708	-2.94522
3.88565	-3.29877	-2.932
30.6273	-26.1489	4.80025
30.6073	-26.1318	3.8455
16.9672	-14.4862	0.608777
23.2111	-19.8171	0.090805
14.5345	-12.4093	-1.24559
14.3586	-12.2591	-1.67061
11.2686	-9.62092	-1.64193
11.2968	-9.64494	-1.99679
11.3154	-9.66086	-2.35365
11.357	-9.69639	-2.72277
10.9175	-9.32111	-2.96051
4.0746	-3.47881	-1.17865
8.80223	-7.51516	-2.9391
7.94368	-6.78214	-2.90427
7.077	-6.0422	-2.81288
6.67615	-5.69995	-2.8754
6.24465	-5.33155	-2.89777
5.81758	-4.96693	-2.89622
5.52567	-4.7177	-2.94401
5.15519	-4.40139	-2.92718
4.78982	-4.08945	-2.89032
4.33724	-3.70304	-2.77376
4.08271	-3.48573	-2.76358
4.11079	-3.5097	-2.9462
3.88427	-3.31631	-2.93812
30.6219	-26.3018	4.8114
30.6082	-26.29	3.85516
16.5269	-14.1953	1.10679
16.8771	-14.4961	0.607338
23.093	-19.8351	0.090805
14.4977	-12.4524	-1.24559
11.2405	-9.65472	-1.29161
11.2536	-9.66596	-1.64402
11.2486	-9.66164	-1.99317
11.2822	-9.69053	-2.35268
11.3073	-9.71212	-2.71758
10.8898	-9.35346	-2.96051
4.05245	-3.48074	-1.17497
8.7843	-7.54503	-2.94062
7.90748	-6.7919	-2.89821
7.06484	-6.06814	-2.81526
6.66208	-5.7222	-2.87668
6.22453	-5.34638	-2.89572
5.79293	-4.97567	-2.89113
5.51865	-4.74009	-2.94787
5.16151	-4.43333	-2.93857
4.83937	-4.15664	-2.92883
4.56078	-3.91735	-2.92907
4.05896	-3.48633	-2.75419
4.09374	-3.51621	-2.9413
3.88485	-3.33678	-2.94629
30.6295	-26.4574	4.82395
30.6009	-26.4327	3.86333
16.8668	-14.5693	0.608266
16.8033	-14.5144	0.090805
18.436	-15.9248	-1.04527
14.4568	-12.4876	-1.24503
11.2512	-9.71862	-1.29626
11.21	-9.68307	-1.64147
11.2081	-9.68137	-1.99067
11.267	-9.73232	-2.35527
11.3426	-9.79762	-2.73313
10.8562	-9.37744	-2.95843
4.02652	-3.47805	-1.16989
4.02214	-3.47427	-1.30056
4.03299	-3.48364	-1.43733
7.04931	-6.0891	-2.81586
6.64894	-5.74326	-2.87796
6.20957	-5.36374	-2.89572
5.7917	-5.00279	-2.89768
5.5026	-4.75307	-2.94633
5.16017	-4.45728	-2.94508
4.83048	-4.1725	-2.93054
4.55659	-3.93592	-2.93355
4.0345	-3.48495	-2.74386
4.05884	-3.50597	-2.92268
3.88333	-3.35437	-2.95241
30.6137	-26.6121	4.8344
30.5929	-26.594	3.87262
16.4563	-14.3052	1.61554
16.3215	-14.188	0.592901
16.2927	-14.163	0.090805
17.5314	-15.2398	-1.53354
11.2341	-9.76567	-1.29793
11.1781	-9.71694	-1.64123
11.1881	-9.72562	-1.99262
11.2275	-9.7599	-2.35332
11.4468	-9.95054	-2.76683
10.8134	-9.39995	-2.95469
4.00382	-3.48047	-1.1662
4.03895	-3.511	-1.31018
4.04379	-3.51521	-1.4456
4.05901	-3.52845	-1.58742
4.01541	-3.49055	-1.70697
4.02965	-3.50292	-1.85255
4.00717	-3.48338	-1.98251
4.5656	-3.96882	-2.43603
4.60836	-4.00599	-2.62782
4.71503	-4.09871	-2.86636
4.47811	-3.89276	-2.88957
4.02087	-3.49529	-2.74199
4.07281	-3.54044	-2.9413
3.86888	-3.36316	-2.94935
30.6062	-26.7749	4.84625
30.5841	-26.7555	3.88191
15.9839	-13.983	1.08117
15.708	-13.7416	0.575354
16.0494	-14.0403	0.090805
16.2211	-14.1905	-0.409573
17.9055	-15.6641	-1.01863
17.4474	-15.2632	-1.5302
11.2094	-9.80616	-1.29867
11.1669	-9.76901	-1.64425
11.1709	-9.77246	-1.99512
13.6714	-11.96	-2.89351
12.0516	-10.5429	-2.92606
10.7779	-9.42872	-2.95302
3.97968	-3.4815	-1.16205
8.68051	-7.59387	-2.92846
7.76159	-6.78997	-2.86623
4.01342	-3.51101	-1.57312
3.99159	-3.49192	-1.70121
4.00731	-3.50566	-1.84708
4.01444	-3.5119	-1.99196
4.03919	-3.53355	-2.15082
4.05394	-3.54646	-2.30731
4.03137	-3.52671	-2.44452
4.05828	-3.55025	-2.61756
4.01253	-3.51023	-2.74386
4.08135	-3.57043	-2.95599
3.85052	-3.3685	-2.94323
30.5997	-26.9298	4.85763
30.5779	-26.9106	3.89101
16.1178	-14.1847	1.09207
16.6233	-14.6296	0.604924
16.1998	-14.257	0.090805
15.5636	-13.697	-0.39054
17.4465	-15.3542	-0.993005
17.7599	-15.63	-1.56354
14.1625	-12.464	-1.66931
11.1692	-9.82966	-1.64913
11.1805	-9.83958	-2.00236
11.2091	-9.86481	-2.3624
12.0069	-10.5669	-2.92273
10.7367	-9.44903	-2.94928
3.95034	-3.47657	-1.15606
8.72185	-7.67583	-2.95074
7.828	-6.88918	-2.89931
7.05288	-6.20702	-2.84088
6.58131	-5.792	-2.87156
6.16675	-5.42716	-2.89913
5.73119	-5.04384	-2.8904
3.98851	-3.51016	-2.12846
4.0242	-3.54157	-2.29593
4.01817	-3.53627	-2.44281
4.02492	-3.54221	-2.6023
4.00077	-3.52095	-2.74293
4.06419	-3.57677	-2.9511
3.8276	-3.36855	-2.93302
30.594	-27.0864	4.86925
30.5605	-27.0567	3.89882
15.4862	-13.7107	1.53714
16.2656	-14.4007	1.1039
16.0977	-14.2521	0.589976
15.6708	-13.8741	0.090805
16.0828	-14.2388	-0.407902
22.4314	-19.8596	-1.30632
17.0502	-15.0954	-1.5016
14.1061	-12.4888	-1.6669
11.2813	-9.98785	-1.6712
11.1868	-9.90422	-2.00904
11.165	-9.88494	-2.35916
11.9844	-10.6103	-2.92495
10.7013	-9.47436	-2.9472
3.9269	-3.47667	-1.15191
8.69324	-7.69655	-2.94872
7.82911	-6.93149	-2.90758
7.07874	-6.26715	-2.85935
6.58112	-5.82658	-2.87924
6.16328	-5.45665	-2.90529
5.73433	-5.07688	-2.89986
5.47175	-4.84441	-2.96175
5.08891	-4.50546	-2.93532
4.75207	-4.20724	-2.91343
4.48943	-3.9747	-2.92099
3.99031	-3.53281	-2.74293
4.05748	-3.59228	-2.95403
3.8163	-3.37875	-2.932
30.5862	-27.2418	4.88063
30.5648	-27.2227	3.90941
16.186	-14.4161	1.60647
15.5917	-13.8868	1.06449
16.5362	-14.728	0.604924
16.6003	-14.7852	0.090805
16.0315	-14.2785	-0.407624
22.3156	-19.8755	-1.30279
17.2199	-15.337	-1.52169
17.6795	-15.7464	-2.11798
11.3065	-10.0702	-1.6798
14.1257	-12.5811	-2.56768
11.1327	-9.9154	-2.35851
11.9352	-10.6302	-2.92051
10.6658	-9.49957	-2.94512
3.89767	-3.47148	-1.14592
8.66604	-7.71844	-2.9472
7.82574	-6.97003	-2.91419
7.05727	-6.28559	-2.85816
6.57512	-5.85616	-2.88436
6.14145	-5.46991	-2.90255
5.71368	-5.08891	-2.89695
5.44633	-4.8508	-2.95558
5.08644	-4.53026	-2.94182
4.75847	-4.23815	-2.92541
4.48295	-3.99276	-2.92458
3.97717	-3.54228	-2.74105
4.03639	-3.59503	-2.9462
3.81525	-3.39807	-2.93914
30.5881	-27.4066	4.89364
30.5581	-27.3797	3.9187
16.6127	-14.8848	1.65056
16.287	-14.593	1.11061
15.7701	-14.1299	0.58241
16.5683	-14.845	0.090805
15.4113	-13.8083	-0.389612
15.4433	-13.837	-0.876174
17.2026	-15.4133	-1.52434
17.4726	-15.6552	-2.09791
17.8158	-15.9628	-2.70657
15.6504	-14.0226	-2.86245
11.065	-9.91415	-2.35008
11.908	-10.6695	-2.92162
10.6347	-9.52856	-2.94429
3.87286	-3.47004	-1.1413
3.90078	-3.49505	-1.2803
3.89321	-3.48827	-1.40811
7.02295	-6.29248	-2.8516
6.55348	-5.87185	-2.88244
6.11819	-5.48184	-2.89913
5.70827	-5.11454	-2.90204
5.41542	-4.85216	-2.94633
5.07978	-4.55143	-2.94589
4.74991	-4.25587	-2.92797
4.47508	-4.00962	-2.92727
3.96664	-3.55407	-2.74105
3.9387	-3.52903	-2.88056
3.81412	-3.41741	-2.94629
30.5838	-27.5571	4.90502
30.5555	-27.5316	3.92799
16.2642	-14.6546	1.62168
15.8395	-14.2719	1.08508
16.3887	-14.7668	0.602974
15.5803	-14.0384	0.090805
15.4692	-13.9383	-0.392629
17.7408	-15.9851	-1.02282
17.1387	-15.4426	-1.52238
17.5575	-15.8199	-2.11408
17.7269	-15.9726	-2.6996
15.6229	-14.0768	-2.86468
13.4491	-12.1182	-2.88346
11.8723	-10.6974	-2.92014
10.6037	-9.55429	-2.94304
3.84581	-3.46521	-1.13577
3.89244	-3.50723	-1.2808
3.86203	-3.47983	-1.39984
3.89911	-3.51324	-1.54691
3.871	-3.48791	-1.66984
3.88148	-3.49736	-1.81083
3.87394	-3.49056	-1.94541
4.09115	-3.68627	-2.2094
4.13997	-3.73026	-2.39029
4.24917	-3.82865	-2.61651
4.15317	-3.74216	-2.71721
3.93833	-3.54858	-2.7279
3.88219	-3.49799	-2.84529
3.802	-3.42574	-2.94425
30.5736	-27.7224	4.9171
30.5397	-27.6917	3.9369
16.1024	-14.6008	1.10446
15.8282	-14.3521	0.586866
15.185	-13.7689	0.090805
15.5335	-14.0849	-0.396018
17.5558	-15.9186	-1.01434
17.2675	-15.6572	-1.53913
17.3174	-15.7025	-2.09011
17.6075	-15.9655	-2.68868
15.5669	-14.1152	-2.86245
13.4066	-12.1564	-2.88248
11.8299	-10.7267	-2.91792
10.5693	-9.58361	-2.94179
3.83202	-3.47466	-1.13485
8.56402	-7.76538	-2.93555
7.7107	-6.99163	-2.8938
3.85835	-3.49854	-1.5344
3.83475	-3.47714	-1.65831
3.86073	-3.50069	-1.80604
3.86434	-3.50397	-1.94613
3.89225	-3.52928	-2.10379
3.89948	-3.53584	-2.25281
3.88358	-3.52142	-2.39062
3.89514	-3.53189	-2.55023
3.88661	-3.52416	-2.6988
3.82985	-3.47269	-2.81394
3.79887	-3.44461	-2.95037
30.569	-27.884	4.92941
30.5486	-27.8654	3.94842
15.4317	-14.0763	1.06486
16.3661	-14.9286	0.090805
17.2369	-15.7229	-0.997198
17.0382	-15.5416	-1.52182
17.2398	-15.7256	-2.08621
17.4558	-15.9226	-2.67219
15.5352	-14.1707	-2.8644
13.3763	-12.2014	-2.88378
11.7879	-10.7525	-2.91532
10.535	-9.60966	-2.94013
3.83463	-3.49782	-1.139
8.58526	-7.83118	-2.95125
7.76094	-7.07926	-2.92136
6.98076	-6.36761	-2.85756
6.45616	-5.88909	-2.86195
6.07471	-5.54114	-2.90187
5.65838	-5.16139	-2.89986
5.30793	-4.84172	-2.9101
3.83228	-3.49567	-2.21865
3.85976	-3.52074	-2.38206
3.88464	-3.54344	-2.55023
3.86701	-3.52735	-2.69222
3.8118	-3.47699	-2.80806
3.78736	-3.4547	-2.94935
30.5564	-28.039	4.94056
30.5406	-28.0245	3.9579
15.594	-14.3093	1.57076
15.4488	-14.176	1.06859
16.0713	-14.7473	0.597218
15.159	-13.9102	0.090805
17.8687	-16.3967	-1.04015
16.964	-15.5665	-1.51917
17.378	-15.9463	-2.10962
17.4261	-15.9904	-2.67497
15.5018	-14.2247	-2.86607
13.3357	-12.2371	-2.88281
11.7501	-10.7821	-2.91384
10.4935	-9.62897	-2.93639
3.80703	-3.49339	-1.13346
8.56056	-7.85531	-2.95074
7.74415	-7.10616	-2.92301
6.97309	-6.39862	-2.86232
6.4596	-5.92744	-2.87156
6.06655	-5.56677	-2.90598
5.6554	-5.18949	-2.9064
5.35609	-4.91484	-2.94556
5.00387	-4.59163	-2.93288
4.68176	-4.29605	-2.91685
4.40742	-4.04432	-2.9138
4.15318	-3.81102	-2.9063
3.78862	-3.4765	-2.79826
3.77583	-3.46476	-2.94833
30.5513	-28.2117	4.9538
30.5285	-28.1906	3.96756
15.7688	-14.5612	1.59169
15.5627	-14.3709	1.07865
14.9349	-13.7912	0.562773
14.77	-13.6389	0.090805
17.2449	-15.9242	-1.55056
17.3146	-15.9887	-2.10795
17.437	-16.1017	-2.68473
15.4323	-14.2505	-2.86133
13.287	-12.2695	-2.88054
11.7119	-10.815	-2.91273
10.4603	-9.65923	-2.93556
3.78746	-3.49741	-1.1307
8.53015	-7.87691	-2.94872
7.73308	-7.14088	-2.92742
6.96698	-6.43345	-2.86828
6.43956	-5.94641	-2.87092
6.04765	-5.58452	-2.90529
5.64318	-5.21102	-2.90859
5.34334	-4.93415	-2.9471
4.99478	-4.61228	-2.93613
4.68019	-4.32178	-2.92455
4.40651	-4.06906	-2.92188
4.17232	-3.85281	-2.92884
3.76359	-3.47537	-2.78749
3.75355	-3.4661	-2.93914
30.5417	-28.3712	4.96565
30.5206	-28.3515	3.97722
15.9287	-14.7967	1.61108
15.3502	-14.2593	1.06785
16.2636	-15.1078	0.606178
14.9932	-13.9277	0.090805
15.7	-14.5842	-0.908503
17.0367	-15.826	-1.53522
17.0468	-15.8353	-2.07989
17.4474	-16.2075	-2.69402
15.3769	-14.2841	-2.85883
13.2419	-12.3008	-2.87859
11.6653	-10.8363	-2.90903
10.4244	-9.68357	-2.93348
9.45193	-8.7802	-2.96595
3.74801	-3.48165	-1.24839
3.75522	-3.48834	-1.37889
6.93667	-6.4437	-2.86352
6.43993	-5.98226	-2.87924
6.01866	-5.59093	-2.89913
5.62496	-5.2252	-2.90713
5.32732	-4.94872	-2.94633
4.98643	-4.63206	-2.93938
4.67397	-4.3418	-2.92883
4.40359	-4.09063	-2.92817
4.17511	-3.87839	-2.93916
3.73921	-3.47347	-2.77671
3.74955	-3.48308	-2.94425
30.5465	-28.535	4.97912
15.7525	-14.7152	2.10191
15.6074	-14.5796	1.58429
15.5672	-14.5421	1.08424
16.106	-15.0453	0.60251
15.723	-14.6876	0.090805
15.6548	-14.6239	-0.908223
17.0027	-15.883	-1.53619
16.141	-15.0781	-1.96991
17.3934	-16.248	-2.69263
15.3196	-14.3108	-2.85549
13.2003	-12.331	-2.87697
11.6192	-10.8541	-2.90496
10.3873	-9.70329	-2.93057
9.41742	-8.79726	-2.96272
3.74959	-3.50267	-1.25244
3.75389	-3.50669	-1.3822
3.76975	-3.52151	-1.51891
3.72737	-3.48191	-1.63271
3.7397	-3.49344	-1.77184
3.73978	-3.4935	-1.90758
3.96758	-3.70631	-2.17702
4.05489	-3.78786	-2.37971
4.16909	-3.89455	-2.60967
4.00034	-3.73691	-2.65886
3.97069	-3.70921	-2.79832
3.7193	-3.47438	-2.76887
3.74107	-3.49471	-2.94527
30.5356	-28.6949	4.99097
15.6551	-14.7114	2.09504
15.9029	-14.9442	1.6168
15.9826	-15.0192	1.11359
15.8207	-14.867	0.090805
17.0733	-16.0441	-1.5475
16.0425	-15.0755	-1.96304
16.0365	-15.0698	-2.48263
15.241	-14.3223	-2.84853
13.1521	-12.3593	-2.87438
11.5827	-10.8845	-2.90385
10.3542	-9.73005	-2.92932
9.39836	-8.83183	-2.96503
8.43007	-7.9219	-2.93758
7.58501	-7.12779	-2.8938
3.7259	-3.5013	-1.50461
3.69769	-3.47479	-1.62374
3.72111	-3.4968	-1.76773
3.72532	-3.50076	-1.90539
3.7508	-3.5247	-2.05908
3.76402	-3.53713	-2.20888
3.7386	-3.51324	-2.33757
3.75481	-3.52846	-2.49727
3.76278	-3.53596	-2.65467
3.69373	-3.47107	-2.75712
3.72692	-3.50226	-2.94221
30.5405	-28.8605	5.00468
15.31	-14.4678	2.05603
15.993	-15.1133	1.62949
15.4934	-14.6411	1.08489
15.7589	-14.892	0.594201
15.4303	-14.5815	0.090805
15.8112	-14.9415	-0.414262
17.0848	-16.145	-1.0054
16.9544	-16.0218	-1.54038
16.0655	-15.1818	-1.9714
15.9683	-15.0899	-2.47845
15.1693	-14.3348	-2.84241
13.1161	-12.3947	-2.87405
11.5522	-10.9168	-2.90385
10.3156	-9.74818	-2.92599
9.35528	-8.84066	-2.95903
8.46698	-8.00123	-2.95885
7.65171	-7.23081	-2.92797
6.90768	-6.5277	-2.87484
6.3665	-6.01629	-2.869
5.96927	-5.64091	-2.89845
5.56788	-5.2616	-2.90058
3.67254	-3.47052	-2.01977
3.73421	-3.5288	-2.19668
3.71301	-3.50877	-2.3273
3.73195	-3.52666	-2.48829
3.74776	-3.5416	-2.65091
3.67388	-3.47179	-2.74928
3.68712	-3.4843	-2.91772
30.5317	-29.0344	5.01792
15.6613	-14.8932	2.10712
15.8934	-15.114	1.62447
15.5588	-14.7957	1.09207
15.8526	-15.0751	0.598704
15.1424	-14.3997	0.090805
15.3889	-14.6342	-0.402239
16.8332	-16.0076	-1.53354
16.9629	-16.131	-2.09308
17.1444	-16.3036	-2.67591
15.1328	-14.3906	-2.84408
13.0643	-12.4236	-2.87114
11.5036	-10.9395	-2.90014
10.2807	-9.77649	-2.92475
9.32323	-8.86598	-2.95765
8.42918	-8.01579	-2.95429
7.62617	-7.25216	-2.92687
6.87884	-6.54148	-2.87126
6.34757	-6.03626	-2.869
5.9556	-5.66352	-2.9005
5.58237	-5.3086	-2.91732
5.26374	-5.00559	-2.94324
4.91869	-4.67746	-2.93125
4.60716	-4.38121	-2.91856
4.33862	-4.12584	-2.9165
4.10771	-3.90626	-2.9232
3.65285	-3.4737	-2.74144
3.68613	-3.50535	-2.92588
30.5164	-29.2029	5.03023
15.813	-15.1324	2.13276
15.0862	-14.4369	1.55095
15.5295	-14.8611	1.09319
15.6564	-14.9825	0.593922
22.3652	-21.4026	0.090805
15.1262	-14.4751	-0.395275
16.9715	-16.241	-1.00465
16.8419	-16.117	-1.53926
16.9798	-16.2489	-2.10182
17.0357	-16.3024	-2.66661
15.0818	-14.4326	-2.84296
13.018	-12.4577	-2.86952
11.4664	-10.9728	-2.8994
10.2443	-9.80333	-2.92308
9.28689	-8.88716	-2.95488
8.40815	-8.04624	-2.95581
7.58807	-7.26146	-2.92081
6.86377	-6.56833	-2.87364
6.33131	-6.05879	-2.87028
5.94185	-5.6861	-2.90255
5.56836	-5.32868	-2.91877
5.25332	-5.02721	-2.94633
4.91189	-4.70047	-2.93613
4.59206	-4.39441	-2.9177
4.3308	-4.14439	-2.92009
4.09542	-3.91914	-2.9232
3.6394	-3.48275	-2.73949
3.69001	-3.53118	-2.93812
30.5163	-29.3665	5.04347
30.4752	-29.327	4.03667
14.9826	-14.4181	1.54481
15.8767	-15.2785	1.11834
15.2067	-14.6338	0.580785
22.3702	-21.5274	0.090805
15.8479	-15.2507	-0.419832
17.0383	-16.3964	-1.5627
16.9846	-16.3446	-2.10832
16.9629	-16.3238	-2.6622
15.0186	-14.4527	-2.83851
12.9747	-12.4858	-2.86757
11.423	-10.9926	-2.89607
10.2126	-9.82783	-2.92184
9.26063	-8.91171	-2.95442
8.37868	-8.06298	-2.95328
7.58023	-7.29462	-2.92577
6.83027	-6.57291	-2.86709
6.31573	-6.07777	-2.87092
5.9273	-5.70397	-2.90324
5.56151	-5.35196	-2.92314
5.23528	-5.03802	-2.94401
4.89611	-4.71163	-2.9345
4.60192	-4.42852	-2.93225
4.3308	-4.16762	-2.92817
4.101	-3.94648	-2.93541
3.62337	-3.48685	-2.73459
3.68633	-3.54744	-2.94323
30.4947	-29.5205	5.05416
15.7857	-15.2814	2.14056
15.2981	-14.8094	1.57969
15.659	-15.1587	1.10716
15.3153	-14.8261	0.090805
15.4707	-14.9764	-0.409109
16.8147	-16.2775	-1.54568
17.0805	-16.5348	-2.12708
16.9144	-16.374	-2.6622
14.9429	-14.4655	-2.83211
12.9262	-12.5133	-2.86498
11.386	-11.0223	-2.89496
10.1764	-9.85129	-2.91976
9.22576	-8.93102	-2.95166
3.60601	-3.49081	-1.22306
3.61352	-3.49808	-1.35133
3.62005	-3.5044	-1.48138
3.57222	-3.4581	-1.58917
3.58915	-3.47449	-1.72737
5.54026	-5.36326	-2.92023
4.35578	-4.21662	-2.44142
4.88211	-4.72614	-2.9345
4.58616	-4.43964	-2.93054
4.31456	-4.17672	-2.92548
4.08166	-3.95126	-2.92977
3.61427	-3.4988	-2.73557
3.69433	-3.57631	-2.95853
30.5033	-29.6942	5.06902
15.3719	-14.9642	2.09226
15.7313	-15.3141	1.62601
14.5415	-14.1558	1.03719
14.5849	-14.1981	0.563377
15.549	-15.1366	0.090805
15.9116	-15.4896	-0.424753
16.7378	-16.2938	-1.54261
17.0029	-16.5519	-2.123
16.8814	-16.4337	-2.66429
14.9138	-14.5182	-2.83433
12.8827	-12.5411	-2.86303
11.3468	-11.0458	-2.89274
10.1432	-9.87421	-2.91809
9.198	-8.95404	-2.95073
3.57546	-3.48062	-1.21547
3.58307	-3.48804	-1.34306
3.60204	-3.5065	-1.4778
3.5707	-3.47599	-1.59301
3.58213	-3.48712	-1.72874
3.58695	-3.49181	-1.86393
3.61801	-3.52204	-2.01823
3.62123	-3.52518	-2.15926
3.60097	-3.50546	-2.28794
3.70995	-3.61156	-2.50984
3.68721	-3.58942	-2.64527
3.60323	-3.50766	-2.73459
3.66461	-3.56741	-2.94221
30.495	-29.8733	5.08296
14.7644	-14.4634	2.01906
15.5121	-15.1959	1.60926
14.9865	-14.681	1.06915
14.9959	-14.6902	0.578185
15.4843	-15.1686	0.090805
16.0757	-15.748	-0.43167
16.7634	-16.4217	-1.55015
17.0333	-16.6861	-2.13377
16.8127	-16.4699	-2.6615
14.8228	-14.5207	-2.82543
12.8306	-12.569	-2.86011
11.298	-11.0677	-2.88903
10.1024	-9.89644	-2.91518
9.16148	-8.97472	-2.94797
8.26097	-8.09256	-2.93656
7.50676	-7.35373	-2.92246
6.74694	-6.6094	-2.85637
6.26409	-6.13639	-2.8722
5.85482	-5.73546	-2.89229
3.55999	-3.48741	-1.8552
3.59638	-3.52306	-2.01206
3.60492	-3.53143	-2.15601
3.59252	-3.51928	-2.28965
3.59262	-3.51939	-2.43533
3.60275	-3.52931	-2.59082
3.59219	-3.51897	-2.73459
3.64232	-3.56807	-2.93302
30.4949	-30.0406	5.09667
15.3524	-15.1237	2.10136
14.7376	-14.5181	1.53741
15.2842	-15.0565	1.09132
15.5645	-15.3326	0.598054
14.9574	-14.7346	0.090805
15.667	-15.4336	-0.419786
16.9492	-16.6967	-1.57289
16.7185	-16.4694	-2.09866
16.7581	-16.5085	-2.66011
14.7413	-14.5217	-2.81736
12.7645	-12.5743	-2.85298
11.2628	-11.095	-2.88792
10.0677	-9.91775	-2.9131
9.13361	-8.99753	-2.94704
3.49409	-3.44204	-1.19318
7.51359	-7.40165	-2.93349
6.74886	-6.64831	-2.8653
6.28202	-6.18843	-2.88884
5.88296	-5.79531	-2.91487
5.52509	-5.44278	-2.93769
5.15103	-5.07428	-2.92937
4.81725	-4.74548	-2.91986
4.51762	-4.45032	-2.91086
4.15572	-4.09381	-2.83929
3.97154	-3.91238	-2.87344
3.56993	-3.51675	-2.72479
3.56249	-3.50942	-2.87487
30.4836	-30.2188	5.11037
30.4328	-30.1684	4.08869
14.4865	-14.3606	1.51719
15.1077	-14.9764	1.08285
15.7903	-15.6531	0.607013
14.4409	-14.3154	0.090805
15.4694	-15.3349	-0.414912
16.4872	-16.3439	-1.53257
17.8009	-17.6462	-2.24766
16.6568	-16.5121	-2.65198
14.7055	-14.5777	-2.8193
12.7376	-12.6269	-2.8559
11.2209	-11.1234	-2.88607
10.0296	-9.94244	-2.91102
9.09839	-9.01933	-2.94474
3.49013	-3.45981	-1.19571
7.49713	-7.43199	-2.93624
6.74963	-6.69099	-2.87484
6.25986	-6.20547	-2.88756
5.85938	-5.80847	-2.91213
5.51061	-5.46273	-2.93914
5.13899	-5.09434	-2.93168
4.82957	-4.7876	-2.93694
4.51646	-4.47722	-2.91941
4.26469	-4.22763	-2.92548
4.04075	-4.00564	-2.93447
3.56011	-3.52917	-2.72577
3.51358	-3.48305	-2.84325
30.4743	-30.4	5.12454
15.3924	-15.3548	2.11919
15.4103	-15.3727	1.61289
15.5683	-15.5303	1.11629
14.5279	-14.4924	0.56723
14.8631	-14.8269	0.090805
15.4169	-15.3792	-0.414773
16.5431	-16.5027	-1.54317
16.5893	-16.5488	-2.09531
16.5683	-16.5279	-2.64594
14.6259	-14.5902	-2.81262
12.6936	-12.6627	-2.85493
11.1804	-11.1531	-2.88459
9.99415	-9.96976	-2.90978
9.06587	-9.04375	-2.94335
3.46692	-3.45846	-1.19115
7.49007	-7.47179	-2.94286
6.74751	-6.73104	-2.88318
6.2457	-6.23046	-2.89012
5.83179	-5.81756	-2.90734
5.50002	-5.4866	-2.94278
5.14125	-5.12871	-2.94247
4.8145	-4.80275	-2.93694
4.50877	-4.49777	-2.92369
4.25392	-4.24353	-2.92727
4.02315	-4.01333	-2.93071
3.54283	-3.53418	-2.72087
3.47826	-3.46977	-2.82284
30.4791	-30.575	5.13941
15.587	-15.6361	2.15059
14.7954	-14.842	1.55625
14.5559	-14.6017	1.05229
14.7965	-14.8431	0.577396
15.8948	-15.9448	0.090805
15.0054	-15.0526	-0.402656
16.6575	-16.7099	-1.55907
17.4934	-17.5485	-2.2209
16.5137	-16.5656	-2.64454
14.5516	-14.5974	-2.80594
12.6415	-12.6813	-2.85103
11.1422	-11.1773	-2.88274
9.95384	-9.98516	-2.90603
9.03097	-9.05938	-2.94013
3.44085	-3.45168	-1.18508
3.46109	-3.47199	-1.31495
6.72194	-6.74309	-2.8802
6.22694	-6.24653	-2.88948
5.82481	-5.84314	-2.91213
5.47679	-5.49402	-2.93841
5.12952	-5.14566	-2.94401
4.79591	-4.811	-2.93369
4.5013	-4.51546	-2.92712
4.24331	-4.25666	-2.92817
4.01816	-4.0308	-2.93541
3.57111	-3.58234	-2.75124
3.45277	-3.46363	-2.80958
