# .PCD v0.7 - Point Cloud Data file format
VERSION 0.7
FIELDS x y z
SIZE 4 4 4
TYPE F F F
COUNT 1 1 1
WIDTH 1861
HEIGHT 1
VIEWPOINT 0 0 0 1 0 0 0
POINTS 1861
DATA ascii
7.07045 -3.15092 -2.93187
6.74099 -3.0041 -2.99181
6.25827 -2.78898 -2.95972
5.84351 -2.60414 -2.93738
5.48012 -2.4422 -2.92278
5.16474 -2.30165 -2.91569
4.86072 -2.16616 -2.89917
4.5834 -2.04258 -2.88508
34.1601 -15.3522 -3.40323
21.1449 -9.50291 -3.16724
9.28135 -4.17121 -1.58098
15.921 -7.15516 -3.19787
9.34121 -4.19811 -2.08603
12.8499 -5.77497 -3.24723
11.5963 -5.21159 -3.23743
9.24659 -4.15558 -2.81607
9.00319 -4.04619 -2.98922
8.20917 -3.68934 -2.95031
7.53916 -3.38823 -2.9176
7.086 -3.18458 -2.94278
6.69616 -3.00938 -2.97562
6.25447 -2.81087 -2.96216
5.84025 -2.62471 -2.93995
5.4659 -2.45647 -2.91919
5.15105 -2.31497 -2.91194
4.85548 -2.18214 -2.90015
4.58167 -2.05908 -2.88814
33.9621 -15.3844 -3.38763
25.9098 -11.7368 -3.23552
9.31622 -4.22014 -1.34658
9.30489 -4.21501 -1.58747
15.9247 -7.21372 -3.20305
9.34653 -4.23388 -2.09019
12.8079 -5.80183 -3.24078
9.26851 -4.19853 -2.57289
9.22896 -4.18062 -2.81441
8.99288 -4.07368 -2.98982
8.17229 -3.70196 -2.9407
7.52908 -3.41059 -2.9176
7.0918 -3.21251 -2.94933
6.7057 -3.03761 -2.9841
6.24111 -2.82715 -2.95972
5.82585 -2.63904 -2.93653
5.46022 -2.47342 -2.92009
5.14094 -2.32879 -2.91006
4.84422 -2.19438 -2.89721
4.57711 -2.07338 -2.88916
33.8148 -15.4388 -3.37722
25.8622 -11.8079 -3.23389
21.1044 -9.63562 -3.16974
9.28875 -4.24096 -1.58682
15.8818 -7.25115 -3.19861
14.0979 -6.43666 -3.20335
9.28359 -4.23861 -2.3273
9.27186 -4.23325 -2.57745
9.23401 -4.21597 -2.81993
8.98423 -4.10193 -2.99101
8.16472 -3.72776 -2.94198
7.53431 -3.43994 -2.92376
7.09918 -3.24127 -2.9566
6.6933 -3.05596 -2.98256
6.22771 -2.84338 -2.95728
5.81141 -2.65331 -2.93311
5.45123 -2.48887 -2.91919
5.12758 -2.3411 -2.9063
4.84086 -2.21019 -2.89917
4.56937 -2.08623 -2.88814
33.7553 -15.54 -3.37611
25.8448 -11.8982 -3.23645
21.038 -9.68531 -3.16418
9.2951 -4.2792 -1.59038
15.8786 -7.31004 -3.20268
9.34182 -4.30071 -2.09518
12.7846 -5.88566 -3.244
9.2673 -4.2664 -2.57999
9.23119 -4.24978 -2.82323
8.95049 -4.12055 -2.98386
8.12887 -3.7423 -2.93302
7.51322 -3.45887 -2.91966
7.10419 -3.27057 -2.96315
6.68031 -3.07543 -2.98102
6.22041 -2.8637 -2.95809
5.80797 -2.67383 -2.93567
5.44014 -2.50448 -2.9174
5.12662 -2.36015 -2.91006
4.82597 -2.22174 -2.89427
4.56279 -2.10058 -2.88814
33.4092 -15.5009 -3.34527
25.8148 -11.9774 -3.23714
9.32065 -4.32453 -1.35326
9.30564 -4.31756 -1.5946
15.8889 -7.37202 -3.20935
14.0601 -6.52349 -3.20376
9.28401 -4.30752 -2.33422
9.27566 -4.30365 -2.58606
9.23075 -4.28281 -2.82709
8.9209 -4.13905 -2.9779
8.1143 -3.76481 -2.93174
7.50634 -3.48273 -2.92102
7.1215 -3.30418 -2.97479
6.66446 -3.09213 -2.97793
6.20691 -2.87984 -2.95565
5.79346 -2.688 -2.93225
5.43268 -2.52061 -2.9174
5.11799 -2.37461 -2.90912
4.82252 -2.23752 -2.89623
4.55498 -2.11339 -2.88712
33.1664 -15.5081 -3.32502
25.7378 -12.0346 -3.2318
20.8743 -9.76048 -3.14775
18.1494 -8.48634 -3.20089
15.8403 -7.40664 -3.20379
14.0318 -6.56103 -3.20168
12.7318 -5.95317 -3.23939
9.28914 -4.34345 -2.59366
9.23542 -4.31833 -2.83261
8.91723 -4.16955 -2.98088
8.1254 -3.7993 -2.94006
7.50108 -3.50738 -2.92308
7.13191 -3.33476 -2.98352
6.65191 -3.11032 -2.97639
6.19337 -2.89592 -2.95321
5.78218 -2.70365 -2.93054
5.42842 -2.53824 -2.91919
5.11412 -2.39128 -2.911
4.81586 -2.25182 -2.89623
4.54713 -2.12616 -2.8861
33.0167 -15.5506 -3.31406
25.6879 -12.0988 -3.22971
20.7556 -9.7757 -3.13356
9.29847 -4.37949 -1.59784
15.7964 -7.43996 -3.19898
14.0046 -6.59602 -3.19961
12.7169 -5.98953 -3.23985
9.28748 -4.37432 -2.5967
9.23202 -4.3482 -2.83536
8.90901 -4.19606 -2.98207
8.12162 -3.82521 -2.94262
7.49636 -3.53071 -2.92513
7.1428 -3.36419 -2.99225
6.63986 -3.12731 -2.97485
6.18526 -2.9132 -2.95321
5.77788 -2.72133 -2.93225
5.41161 -2.54882 -2.9138
5.09784 -2.40103 -2.90536
4.80956 -2.26526 -2.89623
4.53339 -2.13519 -2.88099
32.8616 -15.6038 -3.30309
25.5852 -12.1487 -3.22135
9.32831 -4.42941 -1.36049
18.022 -8.55749 -3.18695
15.7552 -7.48111 -3.19527
13.982 -6.63915 -3.19919
12.6857 -6.02361 -3.23663
9.28068 -4.40679 -2.59872
9.20616 -4.37141 -2.8315
8.88888 -4.22075 -2.97969
8.10956 -3.8507 -2.94262
7.49032 -3.55667 -2.92718
7.14902 -3.39461 -2.99952
6.61834 -3.14262 -2.96945
6.17278 -2.93105 -2.95159
5.7693 -2.73947 -2.93225
5.40196 -2.56504 -2.91291
5.09186 -2.41779 -2.9063
4.80241 -2.28035 -2.89623
4.52356 -2.14794 -2.87895
44.8077 -21.4394 -3.38265
32.5996 -15.5981 -3.2808
25.5472 -12.2237 -3.22112
20.7723 -9.93906 -3.14553
17.9805 -8.60325 -3.18403
15.7187 -7.52104 -3.19231
13.9375 -6.66878 -3.19337
12.6871 -6.07047 -3.2417
9.26407 -4.43264 -2.59771
9.2261 -4.41447 -2.84198
8.85049 -4.23475 -2.97075
8.08443 -3.86821 -2.9375
7.47973 -3.57887 -2.92718
7.149 -3.42063 -3.00389
6.61564 -3.16543 -2.97254
6.1657 -2.95014 -2.9524
5.7481 -2.75033 -2.92541
5.39594 -2.58183 -2.9138
5.08148 -2.43137 -2.90442
4.79091 -2.29234 -2.89329
4.52182 -2.16358 -2.88201
42.7698 -20.6205 -1.01157
42.6683 -20.5716 -2.11818
32.4778 -15.6584 -3.273
25.5538 -12.3202 -3.22669
9.3304 -4.49844 -1.36495
9.32234 -4.49456 -1.60952
15.7052 -7.57192 -3.19416
13.9124 -6.70756 -3.19212
12.6287 -6.08864 -3.23109
9.24217 -4.4559 -2.59518
9.23374 -4.45184 -2.84859
8.80865 -4.24689 -2.96062
8.05926 -3.88559 -2.93238
7.47416 -3.6035 -2.92923
7.1254 -3.43535 -2.99807
6.6029 -3.18344 -2.97099
6.14869 -2.96446 -2.94833
5.74643 -2.77051 -2.92883
5.3802 -2.59394 -2.90932
5.07266 -2.44567 -2.90348
4.78723 -2.30805 -2.89525
4.51848 -2.17848 -2.88406
32.389 -15.7412 -3.26891
25.5132 -12.3995 -3.22646
20.7397 -10.0796 -3.14998
17.9099 -8.7043 -3.18079
15.6142 -7.58857 -3.18009
13.8965 -6.7538 -3.19337
12.613 -6.12999 -3.23202
9.27511 -4.50775 -2.60886
9.25083 -4.49596 -2.85852
8.81072 -4.28205 -2.96599
8.06576 -3.92 -2.93942
7.45435 -3.62285 -2.92581
7.09781 -3.44958 -2.99079
6.58954 -3.20255 -2.96945
6.13442 -2.98136 -2.94589
5.71331 -2.7767 -2.91599
5.37203 -2.61083 -2.90932
5.06495 -2.46159 -2.90348
4.77682 -2.32156 -2.89329
4.50697 -2.19041 -2.88099
44.015 -21.5532 -2.19467
32.1544 -15.7453 -3.2494
25.4334 -12.4542 -3.22088
20.6937 -10.1333 -3.14748
17.8609 -8.74612 -3.17657
15.5863 -7.63227 -3.17898
13.8554 -6.78468 -3.18838
12.6018 -6.17081 -3.23386
9.29123 -4.54972 -2.61747
9.24436 -4.52676 -2.86072
8.79797 -4.30818 -2.96599
8.04218 -3.93808 -2.93494
7.43513 -3.64082 -2.92239
7.09089 -3.47226 -2.99225
6.56012 -3.21235 -2.9602
6.12719 -3.00035 -2.9467
5.71479 -2.79841 -2.92113
5.36105 -2.62519 -2.90752
5.05286 -2.47428 -2.90067
4.77147 -2.33649 -2.89427
4.50818 -2.20756 -2.8861
32.1308 -15.8521 -3.25182
25.3768 -12.5199 -3.21833
9.33004 -4.60309 -1.37135
9.31833 -4.59732 -1.61632
15.5601 -7.67675 -3.17824
13.8369 -6.82662 -3.18879
9.30926 -4.59284 -2.3688
9.2829 -4.57983 -2.61898
9.23778 -4.55757 -2.86293
8.78686 -4.33511 -2.96658
8.05595 -3.9745 -2.94454
7.43946 -3.67035 -2.92855
7.07889 -3.49246 -2.99152
6.55884 -3.23588 -2.96406
6.12481 -3.02175 -2.94996
5.70484 -2.81455 -2.92027
5.35484 -2.64188 -2.90842
5.04075 -2.48692 -2.89785
4.76139 -2.34909 -2.89231
4.49698 -2.21864 -2.88304
43.0375 -21.4015 -1.02512
42.9666 -21.3662 -2.14697
31.9007 -15.8634 -3.23305
25.3213 -12.5916 -3.21624
20.6119 -10.2498 -3.14441
17.8054 -8.85418 -3.17625
15.5323 -7.72384 -3.1775
13.8277 -6.87615 -3.1917
9.3157 -4.63246 -2.37433
9.28232 -4.61587 -2.62304
9.23203 -4.59085 -2.86568
8.76636 -4.35929 -2.9642
8.01628 -3.98629 -2.9343
7.43799 -3.69873 -2.93265
7.06288 -3.51219 -2.98934
6.54368 -3.25401 -2.96175
6.09402 -3.0304 -2.93938
5.69759 -2.83326 -2.92113
5.34331 -2.65709 -2.90662
5.03607 -2.50431 -2.89973
4.74462 -2.35938 -2.88644
4.50077 -2.23812 -2.89018
31.5589 -15.8035 -3.20203
25.1937 -12.6161 -3.20416
20.6186 -10.325 -3.14998
17.7294 -8.87825 -3.16684
15.451 -7.73726 -3.16491
13.8014 -6.91124 -3.19004
12.5463 -6.28273 -3.23386
9.26421 -4.63917 -2.62152
9.22777 -4.62092 -2.86844
8.74733 -4.38033 -2.96182
7.9814 -3.99679 -2.92534
7.41251 -3.71191 -2.9265
7.04971 -3.53023 -2.98788
6.53457 -3.27227 -2.96175
6.0937 -3.0515 -2.94345
5.69127 -2.84997 -2.92198
5.33427 -2.6712 -2.90572
5.03064 -2.51916 -2.90067
4.73801 -2.37262 -2.88644
4.48066 -2.24375 -2.88099
31.3669 -15.8308 -3.18716
25.1025 -12.6692 -3.19742
9.33739 -4.71256 -1.37914
9.33084 -4.70926 -1.62637
15.4687 -7.80702 -3.1738
13.7761 -6.9528 -3.18921
9.30889 -4.69818 -2.37987
9.29968 -4.69353 -2.63621
9.22693 -4.65682 -2.87285
8.71477 -4.39833 -2.95526
7.97049 -4.02269 -2.92598
7.40249 -3.73602 -2.92718
7.03193 -3.54901 -2.98497
6.51437 -3.28779 -2.95712
6.08246 -3.06981 -2.94264
5.68229 -2.86784 -2.92198
5.32745 -2.68875 -2.90662
5.0227 -2.53495 -2.90067
4.73676 -2.39064 -2.89036
4.47205 -2.25704 -2.87997
31.2409 -15.8769 -3.17862
25.0546 -12.7329 -3.19579
20.4511 -10.3934 -3.13328
17.6272 -8.95826 -3.15777
15.4328 -7.84306 -3.17083
13.7619 -6.9939 -3.19046
9.32003 -4.7365 -2.38632
9.27101 -4.71159 -2.63165
9.22075 -4.68605 -2.87505
8.72799 -4.43562 -2.9642
7.94402 -4.03721 -2.92021
7.38533 -3.75327 -2.92444
7.01867 -3.56694 -2.98352
6.51504 -3.31099 -2.96175
6.07549 -3.08761 -2.94345
5.65814 -2.87551 -2.91343
5.31673 -2.702 -2.90483
5.01088 -2.54656 -2.89785
4.72541 -2.40149 -2.88742
4.46726 -2.27029 -2.88099
31.1324 -15.945 -3.17249
25.0145 -12.8116 -3.19579
9.33923 -4.78324 -1.38387
17.4971 -8.96142 -3.13896
15.4186 -7.89688 -3.17306
13.719 -7.0264 -3.18547
12.4767 -6.39013 -3.23063
9.29405 -4.7601 -2.64279
9.21112 -4.71762 -2.87671
8.71741 -4.46476 -2.96539
7.91444 -4.05351 -2.91381
7.38019 -3.77989 -2.92718
7.00246 -3.58642 -2.98134
6.48653 -3.32219 -2.95327
6.06413 -3.10584 -2.94264
5.65712 -2.89739 -2.9177
5.29867 -2.7138 -2.89944
5.00285 -2.56229 -2.89785
4.71474 -2.41473 -2.88546
4.45858 -2.28353 -2.87997
41.6047 -21.4646 -0.99611
41.6151 -21.47 -2.09293
41.5748 -21.4492 -3.1805
31.0885 -16.0391 -3.17286
24.9834 -12.8894 -3.19672
9.36196 -4.83 -1.38972
17.3739 -8.96352 -3.12113
15.3968 -7.9435 -3.17343
13.7137 -7.07515 -3.18921
9.31513 -4.80584 -2.39278
9.30912 -4.80274 -2.6514
9.22954 -4.76168 -2.88718
8.67697 -4.4766 -2.95586
7.90911 -4.08045 -2.91637
7.37729 -3.80607 -2.9306
6.98848 -3.60548 -2.97988
6.47665 -3.34142 -2.95327
6.05164 -3.12215 -2.94101
5.64208 -2.91085 -2.91428
5.28901 -2.72869 -2.89854
4.99209 -2.57551 -2.89597
4.7091 -2.42951 -2.88644
4.44873 -2.29517 -2.87793
30.933 -16.0752 -3.16153
24.8499 -12.914 -3.18418
9.34231 -4.85501 -1.38888
17.363 -9.02322 -3.12405
9.33379 -4.85058 -1.89106
13.684 -7.11129 -3.18713
9.32673 -4.84692 -2.3997
9.28967 -4.82766 -2.64988
9.24949 -4.80678 -2.89821
8.68398 -4.51289 -2.96301
7.90706 -4.10914 -2.92021
7.36597 -3.82795 -2.9306
6.97444 -3.62448 -2.97843
6.47162 -3.36317 -2.95558
6.04235 -3.14009 -2.94101
5.63823 -2.93007 -2.91685
5.28248 -2.7452 -2.89944
4.98286 -2.58949 -2.89503
4.70342 -2.44427 -2.88742
4.44342 -2.30916 -2.87895
30.8206 -16.14 -3.15503
24.6966 -12.933 -3.16931
9.3428 -4.89261 -1.39139
17.2367 -9.02646 -3.10589
9.3394 -4.89083 -1.89551
13.6494 -7.1479 -3.18422
12.4147 -6.50129 -3.22971
9.28989 -4.8649 -2.65444
9.24797 -4.84295 -2.90262
8.663 -4.53661 -2.96062
7.9025 -4.13836 -2.92342
7.36723 -3.85804 -2.93607
6.96137 -3.64551 -2.9777
6.45448 -3.38006 -2.95249
6.02599 -3.15567 -2.93776
5.61618 -2.94106 -2.91
5.27541 -2.76261 -2.90034
4.9747 -2.60513 -2.89503
4.71888 -2.47117 -2.90211
4.43615 -2.32311 -2.87895
40.7169 -21.4676 -0.977866
40.7703 -21.4957 -2.05855
40.6993 -21.4583 -3.1265
30.7542 -16.2149 -3.1528
24.5216 -12.9287 -3.15096
9.34838 -4.92884 -1.39445
17.1957 -9.06627 -3.10297
9.32918 -4.91872 -1.89625
13.626 -7.18416 -3.18339
9.31675 -4.91216 -2.40477
9.2814 -4.89353 -2.65596
9.23951 -4.87144 -2.90427
8.64185 -4.55633 -2.95764
7.88421 -4.15687 -2.92086
7.37305 -3.88737 -2.94291
6.94622 -3.66233 -2.97552
6.44828 -3.39979 -2.95404
6.02038 -3.17419 -2.93938
5.61594 -2.96095 -2.91428
5.26926 -2.77816 -2.90124
4.96116 -2.61572 -2.89128
4.71659 -2.48678 -2.90505
4.42964 -2.33548 -2.87895
40.5133 -21.5232 -0.974292
40.4538 -21.4915 -2.04542
40.4484 -21.4887 -3.11199
30.6363 -16.2759 -3.14574
24.5615 -13.0486 -3.16165
9.34509 -4.96469 -1.3964
17.195 -9.13506 -3.10816
9.33972 -4.96183 -1.9018
13.5999 -7.22509 -3.18256
12.3622 -6.56754 -3.22602
9.31553 -4.94899 -2.67065
9.23605 -4.90676 -2.90813
8.61063 -4.5745 -2.95169
7.86107 -4.17629 -2.91701
7.37906 -3.92021 -2.95044
6.93797 -3.68588 -2.97697
6.42779 -3.41484 -2.94941
5.99747 -3.18623 -2.93288
5.59703 -2.97349 -2.90915
5.2605 -2.7947 -2.90124
4.95448 -2.63212 -2.89222
4.71338 -2.50404 -2.90799
4.41469 -2.34535 -2.87385
40.5169 -21.6704 -2.05194
30.4538 -16.2881 -3.13124
24.539 -13.1246 -3.1635
9.32595 -4.98796 -1.39556
17.1608 -9.17839 -3.10654
9.33449 -4.99253 -1.90365
13.5727 -7.25935 -3.18089
12.3403 -6.6002 -3.2251
9.29144 -4.9695 -2.66761
9.23587 -4.93978 -2.91254
8.55405 -4.57512 -2.9362
7.8427 -4.19465 -2.91445
7.39128 -3.95321 -2.96001
6.91122 -3.69645 -2.9697
6.41172 -3.4293 -2.94633
5.99177 -3.20469 -2.9345
5.5903 -2.98996 -2.91
5.24637 -2.80601 -2.89765
4.94555 -2.64512 -2.89128
4.69407 -2.51061 -2.90015
4.41267 -2.36011 -2.87691
30.5579 -16.4606 -3.14741
24.4877 -13.1908 -3.16188
9.36342 -5.04379 -1.40391
17.1039 -9.21336 -3.10102
15.1492 -8.1604 -3.15121
13.5718 -7.31073 -3.18588
9.3172 -5.01889 -2.41676
9.29369 -5.00623 -2.67267
9.22286 -4.96808 -2.91309
8.5085 -4.58327 -2.92488
7.83022 -4.2179 -2.91445
7.38779 -3.97958 -2.96344
6.89858 -3.71606 -2.96897
6.40314 -3.44918 -2.9471
5.98063 -3.22158 -2.93369
5.58141 -3.00653 -2.91
5.2396 -2.82241 -2.89854
4.93768 -2.65978 -2.89128
4.69734 -2.53031 -2.90701
4.40111 -2.37074 -2.87385
39.7279 -21.5615 -0.958648
30.555 -16.5831 -3.15261
24.3746 -13.2288 -3.15236
19.8578 -10.7774 -3.08457
17.0697 -9.26422 -3.10005
15.082 -8.18545 -3.14232
13.5333 -7.34493 -3.18214
9.30823 -5.05185 -2.4186
9.30852 -5.05201 -2.68179
9.19876 -4.99244 -2.91033
8.51084 -4.61909 -2.93084
7.81859 -4.24338 -2.91509
7.40333 -4.01801 -2.97506
6.8836 -3.73593 -2.96751
6.38903 -3.46752 -2.94556
5.96887 -3.23949 -2.93288
5.5624 -3.01888 -2.90487
5.22599 -2.8363 -2.89585
4.9324 -2.67696 -2.89316
4.67098 -2.53508 -2.89525
4.39666 -2.3862 -2.87589
30.4393 -16.6374 -3.14555
24.2306 -13.2439 -3.13842
19.798 -10.8211 -3.08012
16.9884 -9.28548 -3.09
15.0663 -8.23488 -3.14417
13.4943 -7.37567 -3.17798
12.2543 -6.69793 -3.21818
9.27312 -5.06847 -2.67571
9.19909 -5.02801 -2.9153
8.51553 -4.65439 -2.93739
7.81095 -4.26929 -2.91701
7.40952 -4.04987 -2.98259
6.86758 -3.75366 -2.96533
6.37709 -3.48557 -2.94479
5.94801 -3.25105 -2.92718
5.55183 -3.0345 -2.90401
5.21599 -2.85094 -2.89495
4.92289 -2.69074 -2.89222
4.65426 -2.54391 -2.88937
4.3805 -2.39428 -2.86977
30.3165 -16.6873 -3.13775
24.1338 -13.2841 -3.13075
9.3589 -5.15148 -1.41059
16.9885 -9.35107 -3.09519
15.059 -8.28902 -3.14788
13.4946 -7.42794 -3.18339
9.32412 -5.13234 -2.43105
9.28346 -5.10996 -2.68331
9.2094 -5.06919 -2.92356
8.48328 -4.66951 -2.93084
7.80489 -4.2961 -2.91958
7.41723 -4.08272 -2.9908
6.82867 -3.75875 -2.95296
6.36026 -3.50092 -2.9417
5.93674 -3.2678 -2.92637
5.54597 -3.05271 -2.90572
5.20907 -2.86726 -2.89585
4.90869 -2.70193 -2.88846
4.63141 -2.5493 -2.87958
4.37489 -2.4081 -2.87079
30.2738 -16.781 -3.13849
24.0804 -13.348 -3.12889
19.7611 -10.9538 -3.08457
16.9779 -9.41101 -3.09843
15.0068 -8.31842 -3.14195
13.4503 -7.45561 -3.17798
9.30374 -5.15715 -2.42967
9.28688 -5.1478 -2.68888
9.15396 -5.07412 -2.91033
8.47941 -4.70021 -2.93441
7.81863 -4.33394 -2.92982
7.42316 -4.11473 -2.99832
6.83215 -3.78712 -2.95951
6.34661 -3.51799 -2.94016
5.92862 -3.28629 -2.92718
5.53215 -3.06652 -2.90316
5.19741 -2.88097 -2.89405
4.89911 -2.71562 -2.88752
4.61468 -2.55796 -2.8737
4.36772 -2.42107 -2.87079
30.1317 -16.8194 -3.12864
23.9799 -13.3855 -3.12076
19.7458 -11.022 -3.08735
16.9465 -9.45942 -3.09778
14.9786 -8.36099 -3.14121
9.33357 -5.20994 -2.18125
9.33768 -5.21224 -2.44304
9.30535 -5.19419 -2.69901
9.1993 -5.13499 -2.93018
8.46709 -4.72628 -2.93501
7.81235 -4.36081 -2.93238
7.42897 -4.14681 -3.00584
6.81926 -3.80647 -2.95878
6.33615 -3.5368 -2.94016
5.91405 -3.30119 -2.92474
5.51355 -3.07763 -2.89802
5.18728 -2.89551 -2.89316
4.88949 -2.72928 -2.88658
4.62838 -2.58354 -2.88742
4.36202 -2.43486 -2.87181
30.0383 -16.8843 -3.124
23.8674 -13.4157 -3.11101
19.7027 -11.0747 -3.08568
16.939 -9.52126 -3.10167
14.9589 -8.40829 -3.14232
13.3956 -7.52955 -3.17549
9.33744 -5.2485 -2.44719
9.29158 -5.22273 -2.69952
9.1857 -5.16321 -2.93073
8.46468 -4.75793 -2.93918
7.80433 -4.38675 -2.9343
7.40517 -4.16239 -3.00106
6.79819 -3.82121 -2.95442
6.32884 -3.55739 -2.9417
5.90105 -3.31693 -2.92311
5.517 -3.10107 -2.90487
5.18023 -2.91176 -2.89405
4.906 -2.75762 -2.90161
4.6207 -2.59726 -2.88742
4.35328 -2.44694 -2.87079
38.2743 -21.6722 -0.930377
38.29 -21.6811 -1.9612
38.2816 -21.6763 -2.98546
29.9314 -16.9482 -3.11824
23.8165 -13.4857 -3.10984
9.36857 -5.3048 -1.42229
16.8506 -9.54137 -3.09065
14.9341 -8.45621 -3.14269
9.34583 -5.29192 -2.19206
9.31414 -5.27398 -2.44535
9.31385 -5.27382 -2.71117
9.19787 -5.20815 -2.9401
8.46465 -4.79297 -2.94454
7.79051 -4.41125 -2.9343
7.39369 -4.18656 -3.00174
6.79263 -3.84622 -2.95733
6.31121 -3.57362 -2.93862
5.89537 -3.33815 -2.92555
5.49937 -3.11393 -2.90059
5.17261 -2.9289 -2.89495
4.90807 -2.77912 -2.90818
4.60796 -2.60918 -2.88448
4.33809 -2.45637 -2.86569
29.8118 -16.9974 -3.11081
23.8057 -13.573 -3.11379
19.6846 -11.2233 -3.09375
16.8565 -9.61087 -3.09713
14.8919 -8.49075 -3.13899
9.36237 -5.33804 -2.19997
12.0998 -6.89881 -3.20942
9.29312 -5.29855 -2.70965
9.18906 -5.23922 -2.94231
8.43878 -4.81144 -2.94037
7.76587 -4.42778 -2.92982
7.39267 -4.21499 -3.00653
6.76825 -3.85897 -2.95151
6.30058 -3.59233 -2.93862
5.87433 -3.3493 -2.91986
5.48068 -3.12486 -2.89546
5.16234 -2.94335 -2.89405
4.89213 -2.78929 -2.90348
4.59263 -2.61853 -2.87958
4.33377 -2.47093 -2.86773
29.7198 -17.062 -3.10635
23.7136 -13.6139 -3.10682
19.5756 -11.2383 -3.08151
9.36043 -5.3738 -1.68247
14.8803 -8.54272 -3.14195
13.3012 -7.6362 -3.16925
9.33331 -5.35822 -2.45918
9.31763 -5.34922 -2.72181
9.17848 -5.26933 -2.94396
8.41287 -4.82981 -2.9362
7.75763 -4.45363 -2.93174
7.3785 -4.23597 -3.00584
6.75354 -3.87718 -2.95005
6.28349 -3.60733 -2.93554
5.85961 -3.36398 -2.91742
5.47609 -3.14381 -2.89802
5.15049 -2.95688 -2.89226
4.88077 -2.80204 -2.90161
4.58938 -2.63475 -2.88252
4.32194 -2.48121 -2.86467
37.4723 -21.6608 -0.914083
37.4019 -21.6201 -1.92383
29.6052 -17.1133 -3.09948
23.6147 -13.6504 -3.09893
19.5284 -11.2884 -3.07928
16.8778 -9.75616 -3.11205
14.8106 -8.56126 -3.13232
9.35933 -5.41014 -2.20703
9.34601 -5.40245 -2.46702
9.29167 -5.37104 -2.71877
9.1345 -5.28019 -2.93459
8.40842 -4.86048 -2.93977
7.7411 -4.47473 -2.93046
7.3659 -4.25785 -3.00584
6.74684 -3.9 -2.95224
6.27596 -3.62781 -2.93708
5.84328 -3.3777 -2.91417
5.46987 -3.16185 -2.89974
5.14014 -2.97125 -2.89136
4.86174 -2.81032 -2.89503
4.5755 -2.64486 -2.8786
4.31307 -2.49316 -2.86365
37.3868 -21.7596 0.090805
37.292 -21.7045 -0.910973
37.2409 -21.6747 -1.91862
37.3216 -21.7217 -2.92881
29.5096 -17.175 -3.09464
23.5311 -13.6955 -3.09312
19.5171 -11.3592 -3.0829
16.8794 -9.82406 -3.11788
14.7512 -8.5854 -3.12492
9.35338 -5.44379 -2.20953
12.0093 -6.9896 -3.20158
9.28907 -5.40637 -2.72282
9.12046 -5.30823 -2.93514
8.41212 -4.89597 -2.94633
7.69995 -4.48148 -2.91958
7.34998 -4.27779 -3.00448
6.72236 -3.91251 -2.94642
6.2556 -3.64085 -2.93245
5.83639 -3.39686 -2.91579
5.46046 -3.17807 -2.89974
5.13131 -2.98649 -2.89136
4.84727 -2.82118 -2.89128
4.57065 -2.66018 -2.88056
4.30417 -2.50508 -2.86263
37.1588 -21.7835 -1.91787
37.1585 -21.7833 -2.92114
29.3799 -17.2233 -3.08647
23.4212 -13.7301 -3.08406
19.442 -11.3975 -3.0765
9.37427 -5.49545 -1.69447
14.7428 -8.64263 -3.12899
13.2179 -7.74869 -3.16592
9.33298 -5.47125 -2.47255
9.31377 -5.45999 -2.73548
9.08384 -5.32519 -2.92853
8.39175 -4.91948 -2.94454
7.694 -4.51044 -2.92278
7.32516 -4.29421 -2.99969
6.71646 -3.93737 -2.94933
6.24731 -3.66235 -2.93399
5.82726 -3.4161 -2.91661
5.44421 -3.19155 -2.89631
5.1219 -3.0026 -2.89136
4.83686 -2.8355 -2.89034
4.55775 -2.67188 -2.87762
4.29776 -2.51946 -2.86365
37.1374 -21.9105 -1.92002
35.9101 -21.1865 -2.82474
29.2511 -17.2577 -3.07774
23.3639 -13.7844 -3.0815
19.4101 -11.4517 -3.0765
9.37758 -5.53264 -1.69803
14.7169 -8.68277 -3.12862
13.1793 -7.77563 -3.16177
9.35454 -5.51905 -2.4827
9.30015 -5.48696 -2.73599
9.06893 -5.35054 -2.92853
8.36318 -4.93416 -2.93918
7.68627 -4.53479 -2.9247
7.3099 -4.31274 -2.99832
6.69581 -3.95043 -2.94496
6.22434 -3.67227 -2.92783
5.8114 -3.42865 -2.91335
5.43061 -3.20398 -2.89375
5.10426 -3.01144 -2.88598
4.79698 -2.83015 -2.87062
4.55478 -2.68725 -2.88056
4.29664 -2.53495 -2.86773
29.1809 -17.3332 -3.0757
23.3434 -13.8658 -3.08429
9.40622 -5.58723 -1.44678
9.3764 -5.56951 -1.70095
14.6674 -8.71234 -3.12344
13.1579 -7.81569 -3.16218
11.8797 -7.05646 -3.18314
9.31044 -5.53034 -2.74409
9.09764 -5.40393 -2.94341
8.3403 -4.95408 -2.9362
7.67604 -4.55951 -2.92598
7.29707 -4.33441 -2.99832
6.68086 -3.96838 -2.94351
6.21977 -3.6945 -2.93091
5.80435 -3.44774 -2.91498
5.41953 -3.21916 -2.89289
5.0953 -3.02657 -2.88598
4.78401 -2.84167 -2.86781
4.54379 -2.69898 -2.8786
4.28466 -2.54506 -2.86467
29.0596 -17.3849 -3.06845
23.31 -13.9452 -3.08568
19.2871 -11.5385 -3.06787
9.37579 -5.60907 -1.70419
14.6687 -8.77553 -3.12973
13.1383 -7.86001 -3.16343
11.8575 -7.09375 -3.18314
9.29967 -5.56353 -2.74612
9.05587 -5.41768 -2.93514
8.32797 -4.98222 -2.93739
7.65843 -4.58166 -2.9247
7.27051 -4.34959 -2.99285
6.67156 -3.99126 -2.94496
6.20021 -3.70928 -2.92706
5.78722 -3.46221 -2.91173
5.40473 -3.23338 -2.89032
5.09037 -3.04531 -2.88867
4.79021 -2.86575 -2.87719
4.53828 -2.71503 -2.88056
4.27959 -2.56027 -2.86671
36.2992 -21.8625 -0.893008
36.3261 -21.8787 -1.88675
36.3163 -21.8728 -2.87371
28.8953 -17.4033 -3.05619
23.2532 -14.0051 -3.08359
19.2189 -11.5753 -3.0623
9.38278 -5.65112 -1.70873
14.6375 -8.81597 -3.12862
13.1099 -7.89593 -3.16218
9.39409 -5.65794 -2.5076
9.29472 -5.59809 -2.74966
9.04305 -5.44651 -2.93624
8.30334 -5.00099 -2.93382
7.65129 -4.60827 -2.92726
7.25114 -4.36726 -2.99011
6.64851 -4.00431 -2.93987
6.18128 -3.7229 -2.9232
5.77379 -3.47748 -2.9101
5.39357 -3.24847 -2.88947
5.08131 -3.0604 -2.88867
4.79077 -2.88542 -2.88283
4.51825 -2.72128 -2.87272
4.26756 -2.57029 -2.86365
28.8368 -17.4848 -3.05545
23.1741 -14.0514 -3.07848
19.1116 -11.5881 -3.05033
9.38453 -5.69019 -1.7123
14.581 -8.84102 -3.12195
13.068 -7.92363 -3.15761
9.37393 -5.68377 -2.50668
9.29792 -5.63768 -2.75574
9.04165 -5.48229 -2.94121
8.27377 -5.0167 -2.92845
7.63273 -4.62801 -2.92534
7.23333 -4.38584 -2.98806
6.6366 -4.02402 -2.93987
6.17178 -3.74218 -2.92397
5.76032 -3.4927 -2.90847
5.37772 -3.26071 -2.88604
5.06762 -3.07269 -2.88598
4.78369 -2.90053 -2.88377
4.50271 -2.73016 -2.86782
4.24814 -2.57581 -2.85549
35.9491 -21.9434 4.02013
28.71 -17.5246 -3.04727
23.1408 -14.1252 -3.07964
19.0163 -11.6076 -3.04031
16.5773 -10.1189 -3.10005
14.5178 -8.86172 -3.11381
13.0445 -7.96237 -3.15761
9.37364 -5.72169 -2.51129
9.28115 -5.66524 -2.75574
8.96955 -5.47504 -2.92246
8.27026 -5.04819 -2.93262
7.63352 -4.65952 -2.9311
7.21387 -4.40336 -2.98532
6.62145 -4.04175 -2.93841
6.1575 -3.75855 -2.92243
5.75305 -3.51168 -2.9101
5.37111 -3.27854 -2.88776
5.08594 -3.10447 -2.90213
4.77657 -2.91563 -2.88471
4.47821 -2.73351 -2.85705
4.25076 -2.59468 -2.86263
35.721 -21.9499 0.090805
35.6449 -21.9032 -0.88052
28.5578 -17.5482 -3.03631
22.9939 -14.1293 -3.06524
19.0071 -11.6795 -3.04449
16.559 -10.1752 -3.10232
14.5216 -8.92328 -3.12047
13.0258 -8.00411 -3.15885
9.36989 -5.75763 -2.51498
9.31211 -5.72213 -2.77043
8.99258 -5.52578 -2.93569
8.25199 -5.0707 -2.93143
7.63419 -4.69107 -2.93686
7.19116 -4.41884 -2.98122
6.60785 -4.06041 -2.93769
6.1416 -3.77391 -2.92012
5.73171 -3.52203 -2.9044
5.3629 -3.29541 -2.88861
5.07214 -3.11674 -2.89944
4.76489 -2.92794 -2.88283
4.48197 -2.75409 -2.86488
4.24011 -2.60548 -2.86059
28.409 -17.5732 -3.02572
22.94 -14.1902 -3.06362
18.9858 -11.7442 -3.04671
16.5036 -10.2087 -3.09746
14.5001 -8.96942 -3.12158
12.997 -8.03964 -3.15761
9.37759 -5.80077 -2.52189
9.32964 -5.77111 -2.78107
8.9696 -5.54839 -2.93349
8.20931 -5.07809 -2.9213
7.63474 -4.72268 -2.94262
7.17322 -4.4372 -2.97917
6.59102 -4.07705 -2.9355
6.13509 -3.79503 -2.92243
5.71813 -3.5371 -2.90278
5.34233 -3.30465 -2.88262
5.04767 -3.12237 -2.89046
4.75318 -2.94021 -2.88095
4.47229 -2.76646 -2.8639
4.2309 -2.61714 -2.85957
28.3013 -17.6297 -3.01996
22.8819 -14.2538 -3.06176
18.9438 -11.8006 -3.04588
16.5049 -10.2814 -3.10394
14.4602 -9.00766 -3.11899
12.9567 -8.07112 -3.15387
9.35436 -5.82711 -2.52051
9.32296 -5.80755 -2.78461
8.95213 -5.57655 -2.93349
8.18197 -5.09679 -2.91713
7.62951 -4.75265 -2.94646
7.15765 -4.45871 -2.97848
6.57027 -4.09281 -2.93187
6.11217 -3.80745 -2.91704
5.70233 -3.55215 -2.90034
5.3396 -3.32619 -2.8869
5.04997 -3.14578 -2.89765
4.74392 -2.95513 -2.88095
4.4695 -2.78418 -2.86782
4.21244 -2.62405 -2.85243
27.9857 -17.5486 -2.99098
22.8159 -14.3068 -3.0585
18.9003 -11.8515 -3.04449
16.4911 -10.3408 -3.10718
14.4217 -9.04322 -3.1164
12.9228 -8.10329 -3.15137
9.3799 -5.88172 -2.5325
9.327 -5.84855 -2.7912
8.95509 -5.61534 -2.9401
8.15387 -5.11293 -2.91237
7.63464 -4.78734 -2.95415
7.13166 -4.47194 -2.97301
6.56283 -4.11526 -2.93405
6.09772 -3.82361 -2.91549
5.69641 -3.57197 -2.90278
5.32358 -3.33818 -2.88348
5.02547 -3.15125 -2.88867
4.73663 -2.97013 -2.88189
4.45679 -2.79466 -2.86488
4.21338 -2.64202 -2.85855
27.9166 -17.6209 -2.98912
22.7649 -14.3692 -3.05734
18.8667 -11.9086 -3.04476
16.4353 -10.3739 -3.10232
14.4131 -9.09751 -3.12047
12.9185 -8.15413 -3.15636
9.36405 -5.91056 -2.53296
9.32106 -5.88343 -2.79474
8.93514 -5.63983 -2.939
8.12413 -5.12793 -2.90701
7.64283 -4.82414 -2.96311
7.11041 -4.48807 -2.96959
6.55059 -4.13471 -2.93405
6.08479 -3.8407 -2.91472
5.67806 -3.58398 -2.89871
5.31518 -3.35493 -2.88433
5.00854 -3.16138 -2.88418
4.73078 -2.98605 -2.88377
4.45143 -2.80973 -2.86684
4.20697 -2.65543 -2.85957
27.864 -17.6967 -2.98875
22.7013 -14.4178 -3.05409
18.825 -11.956 -3.04337
16.3579 -10.3891 -3.09292
14.3578 -9.11875 -3.11381
12.8907 -8.18703 -3.15511
9.38694 -5.96173 -2.54403
9.31113 -5.91358 -2.79677
8.90637 -5.65651 -2.93459
8.11301 -5.15264 -2.9082
7.65332 -4.8607 -2.97271
7.08992 -4.50287 -2.96617
6.53116 -4.148 -2.93041
6.06625 -3.85273 -2.91087
5.66495 -3.59786 -2.89708
5.30732 -3.37073 -2.88519
4.97707 -3.16098 -2.87072
4.71795 -2.99641 -2.88095
4.43473 -2.81654 -2.86097
4.19228 -2.66256 -2.85447
27.8231 -17.7868 -2.99005
22.6199 -14.4605 -3.04875
18.7311 -11.9744 -3.03363
16.3221 -10.4344 -3.09194
9.40087 -6.0098 -2.01141
12.8664 -8.22524 -3.15511
9.40528 -6.01262 -2.55417
9.30006 -5.94535 -2.79879
8.88307 -5.67877 -2.93239
8.10572 -5.18183 -2.91118
7.65483 -4.89359 -2.97912
7.07019 -4.51984 -2.96344
6.51568 -4.16535 -2.92896
6.05168 -3.86872 -2.90933
5.65733 -3.61662 -2.89871
5.28968 -3.38159 -2.88091
4.96014 -3.17092 -2.86623
4.70606 -3.0085 -2.87907
4.42782 -2.83062 -2.86194
4.19596 -2.6824 -2.86263
27.7819 -17.8768 -2.99135
22.5652 -14.52 -3.04712
18.6805 -12.0203 -3.03113
16.3226 -10.503 -3.0981
9.40118 -6.04936 -2.01548
12.8419 -8.26338 -3.15511
9.39886 -6.04787 -2.5574
9.2954 -5.98129 -2.80285
8.86779 -5.70615 -2.93294
8.09353 -5.20793 -2.91237
7.66418 -4.93166 -2.98872
7.0362 -4.52757 -2.95454
6.49859 -4.18164 -2.92677
6.04173 -3.88766 -2.9101
5.64196 -3.63042 -2.89627
5.27506 -3.39433 -2.87834
4.95522 -3.18852 -2.86892
4.69712 -3.02245 -2.87907
4.41501 -2.84092 -2.859
4.17496 -2.68646 -2.85345
34.2835 -22.2129 3.90198
34.2313 -22.1791 2.94301
27.6287 -17.9012 -2.98057
22.4628 -14.5541 -3.03922
18.6177 -12.0628 -3.02695
16.2497 -10.5285 -3.09032
9.39532 -6.08742 -2.01845
12.8126 -8.30155 -3.15428
9.39778 -6.08901 -2.56247
9.27656 -6.01047 -2.80285
8.8466 -5.73189 -2.93183
8.08834 -5.2406 -2.91654
7.66455 -4.96601 -2.99512
7.0251 -4.5517 -2.95591
6.48699 -4.20305 -2.9275
6.02794 -3.90562 -2.90933
5.62133 -3.64217 -2.89139
5.26589 -3.41187 -2.8792
4.95867 -3.21282 -2.877
4.68019 -3.03239 -2.87438
4.40899 -2.85667 -2.86097
4.16939 -2.70143 -2.85549
34.0045 -22.1842 -0.851832
33.9667 -22.1595 -1.80048
27.4822 -17.9291 -2.97054
22.4169 -14.6246 -3.03922
18.5863 -12.1255 -3.02806
16.1686 -10.5482 -3.08092
14.2338 -9.28596 -3.11122
12.7783 -8.33642 -3.1522
9.40631 -6.13658 -2.57031
9.28356 -6.05649 -2.81095
8.82533 -5.75755 -2.93073
8.07024 -5.26494 -2.91594
7.66637 -5.00146 -3.00217
7.01234 -4.57477 -2.95659
6.45659 -4.21221 -2.9195
6.01255 -3.92252 -2.90779
5.61445 -3.66281 -2.89383
5.2718 -3.43926 -2.88861
4.95454 -3.23229 -2.88059
4.67804 -3.0519 -2.87907
4.39415 -2.8667 -2.85705
4.16232 -2.71545 -2.85651
27.3307 -17.9461 -2.95958
22.3353 -14.6659 -3.03388
18.547 -12.1785 -3.02751
16.1653 -10.6146 -3.08643
14.2094 -9.33031 -3.11196
12.7535 -8.3743 -3.1522
9.38481 -6.16232 -2.56939
9.31568 -6.11693 -2.82665
8.80499 -5.7816 -2.92963
8.05618 -5.28991 -2.91654
7.65941 -5.02938 -3.00537
6.99245 -4.59143 -2.95386
6.44562 -4.23237 -2.92023
5.99934 -3.93933 -2.90701
5.60356 -3.67945 -2.89383
5.26459 -3.45688 -2.89032
4.94194 -3.24502 -2.87879
4.66305 -3.06189 -2.87532
4.38708 -2.88068 -2.85803
4.14274 -2.72024 -2.84835
33.715 -22.2816 3.8611
27.2125 -17.9843 -2.95234
22.2552 -14.7081 -3.02877
9.471 -6.25922 -1.50467
16.1766 -10.6908 -3.09486
14.185 -9.3746 -3.1127
9.37793 -6.19771 -2.29852
9.36973 -6.19229 -2.57031
9.31848 -6.15841 -2.83324
8.79421 -5.81194 -2.93183
8.04363 -5.31589 -2.91773
7.63656 -5.04686 -3.00217
6.9788 -4.61216 -2.95386
6.42371 -4.24531 -2.91586
5.983 -3.95406 -2.9047
5.57737 -3.68599 -2.88569
5.25884 -3.47547 -2.89289
4.92782 -3.25671 -2.8761
4.64953 -3.07279 -2.8725
4.38143 -2.89561 -2.85998
4.14039 -2.73631 -2.85243
33.5161 -22.2933 3.84624
26.9783 -17.9447 -2.93208
22.18 -14.7531 -3.02436
9.47053 -6.29936 -1.50774
16.1152 -10.7191 -3.08903
14.1587 -9.41773 -3.11307
9.39697 -6.25042 -2.30808
9.39993 -6.25239 -2.58414
9.3501 -6.21925 -2.84894
8.76412 -5.82949 -2.92742
8.04531 -5.35137 -2.92428
7.60419 -5.05795 -2.99512
6.95882 -4.62868 -2.95112
6.41263 -4.26539 -2.91659
5.9651 -3.96771 -2.90162
5.56793 -3.70353 -2.88651
5.23345 -3.48105 -2.88433
4.91814 -3.27131 -2.8761
4.64333 -3.08853 -2.87438
4.37136 -2.90763 -2.859
4.13082 -2.74763 -2.85141
26.8588 -17.9804 -2.92465
22.0998 -14.7946 -3.01925
9.48471 -6.34946 -1.5133
16.0768 -10.7624 -3.08773
14.1291 -9.45861 -3.1127
9.39789 -6.29134 -2.31307
9.39104 -6.28675 -2.58691
9.34126 -6.25343 -2.85198
8.74519 -5.8544 -2.92687
8.05161 -5.39008 -2.93262
7.59073 -5.08155 -2.99576
6.93569 -4.64304 -2.94702
6.39686 -4.28232 -2.91513
5.9579 -3.98847 -2.90393
5.55692 -3.72003 -2.88651
5.22159 -3.49555 -2.88348
4.90098 -3.28092 -2.87161
4.62828 -3.09836 -2.87062
4.36272 -2.92058 -2.859
4.12408 -2.76083 -2.85243
26.7905 -18.05 -2.92298
22.0328 -14.8445 -3.01599
9.47405 -6.38311 -1.5147
16.0513 -10.8145 -3.08903
14.1075 -9.50488 -3.11418
9.41325 -6.34215 -2.3218
9.41431 -6.34286 -2.5989
9.33069 -6.28652 -2.85451
8.71822 -5.87387 -2.92356
8.0435 -5.41928 -2.9356
7.56776 -5.09875 -2.99256
6.9172 -4.66045 -2.94497
6.37794 -4.29712 -2.91222
5.93074 -3.99581 -2.89622
5.54131 -3.73344 -2.88407
5.2097 -3.51002 -2.88262
4.89419 -3.29745 -2.87341
4.62053 -3.11307 -2.87156
4.34825 -2.92962 -2.85509
4.10731 -2.76729 -2.84631
33.0553 -22.4138 4.76122
26.6807 -18.0914 -2.91666
21.9541 -14.8864 -3.01112
9.46982 -6.4212 -1.5172
16.0061 -10.8532 -3.08643
14.0695 -9.54008 -3.11196
12.6101 -8.55049 -3.14763
9.39383 -6.36967 -2.59844
9.33121 -6.32721 -2.86059
8.70393 -5.90187 -2.92467
8.0258 -5.44205 -2.93501
7.53848 -5.11162 -2.9868
6.89557 -4.67568 -2.94155
6.3667 -4.31707 -2.91295
5.92496 -4.01754 -2.89931
5.53021 -3.74987 -2.88407
5.19029 -3.51938 -2.87749
4.88439 -3.31195 -2.87341
4.60396 -3.12181 -2.86687
4.33232 -2.93761 -2.85019
4.10051 -2.78043 -2.84733
32.8945 -22.4559 4.74845
26.6517 -18.1942 -2.91982
21.8908 -14.9441 -3.00879
9.48231 -6.47325 -1.52277
15.9491 -10.8879 -3.08189
14.0248 -9.57426 -3.10862
9.4018 -6.41828 -2.32887
9.39628 -6.41451 -2.60489
9.31768 -6.36085 -2.86261
8.66312 -5.91401 -2.91695
7.99763 -5.4597 -2.93084
7.50204 -5.12139 -2.97848
6.88085 -4.69731 -2.94155
6.34542 -4.3318 -2.90931
5.90622 -4.03197 -2.89622
5.51539 -3.76516 -2.88244
5.15532 -3.51936 -2.8638
4.87248 -3.32627 -2.87251
4.60143 -3.14123 -2.87156
4.32595 -2.95318 -2.85215
4.08607 -2.78942 -2.84325
32.7213 -22.4803 4.73335
26.6748 -18.3262 -2.92855
21.8366 -15.0023 -3.0074
9.47613 -6.51032 -1.525
15.9069 -10.9284 -3.07995
14.0109 -9.62585 -3.11196
12.5656 -8.6329 -3.14971
9.39004 -6.45118 -2.60858
9.31152 -6.39724 -2.86666
8.6487 -5.94187 -2.91805
7.98297 -5.48449 -2.93143
7.49306 -5.14791 -2.98104
6.86068 -4.71345 -2.93881
6.32793 -4.34744 -2.90713
5.89119 -4.04739 -2.89468
5.50419 -3.78151 -2.88244
5.14336 -3.53361 -2.86294
4.86112 -3.3397 -2.87161
4.58772 -3.15187 -2.86874
4.31861 -2.96699 -2.85313
4.09054 -2.8103 -2.85243
32.4964 -22.468 1.00805
32.446 -22.4332 0.090805
26.6137 -18.4007 -2.92781
9.50958 -6.57493 -1.26119
18.156 -12.5531 -3.01136
15.8777 -10.9778 -3.0806
9.47512 -6.5511 -2.07955
9.43757 -6.52514 -2.348
9.38206 -6.48676 -2.61181
9.32114 -6.44464 -2.87578
8.60573 -5.95001 -2.90923
7.94939 -5.49621 -2.92488
7.46685 -5.16258 -2.97656
6.84512 -4.73272 -2.93812
6.31347 -4.36514 -2.9064
5.87156 -4.0596 -2.89083
5.48844 -3.79471 -2.88
5.14921 -3.56017 -2.87235
4.84678 -3.35106 -2.86892
4.57835 -3.16547 -2.86874
4.30978 -2.97979 -2.85313
4.07228 -2.81557 -2.84529
32.2812 -22.4694 -1.74337
32.2801 -22.4687 -2.65941
26.5149 -18.4558 -2.92317
9.51496 -6.62293 -1.26491
9.48657 -6.60316 -1.53362
9.47413 -6.5945 -1.80568
9.44804 -6.57635 -2.07807
9.44271 -6.57264 -2.35465
9.41115 -6.55067 -2.6261
9.32308 -6.48937 -2.88287
8.57753 -5.97042 -2.90592
7.92268 -5.51461 -2.9213
7.44748 -5.18385 -2.97528
6.82868 -4.75313 -2.93744
6.29667 -4.38282 -2.90495
5.85878 -4.07803 -2.89083
5.46899 -3.80671 -2.87593
5.12613 -3.56806 -2.86551
4.83182 -3.36321 -2.86623
4.56403 -3.17681 -2.86593
4.29468 -2.98933 -2.84921
4.062 -2.82737 -2.84427
26.3393 -18.443 -2.90905
9.47527 -6.63466 -1.26189
9.44214 -6.61146 -1.52917
9.43628 -6.60735 -1.80179
13.8941 -9.72876 -3.10492
9.39387 -6.57766 -2.34675
9.40558 -6.58585 -2.62979
9.30651 -6.51649 -2.88338
8.55452 -5.98994 -2.90372
7.9135 -5.54109 -2.92369
7.41901 -5.19484 -2.96951
6.80614 -4.76571 -2.93334
6.27983 -4.39718 -2.90277
5.85039 -4.09649 -2.89237
5.46133 -3.82407 -2.87756
5.11911 -3.58444 -2.86722
4.82681 -3.37977 -2.86892
4.56093 -3.1936 -2.86968
4.28346 -2.99931 -2.84725
4.04704 -2.83377 -2.83917
26.2373 -18.4947 -2.90403
9.45926 -6.66783 -1.26258
17.9895 -12.6808 -3.00246
15.6871 -11.0578 -3.06244
13.8651 -9.77349 -3.10529
12.416 -8.75204 -3.13806
9.41347 -6.63555 -2.63809
9.32078 -6.57022 -2.89452
8.52624 -6.01014 -2.90041
7.88513 -5.55823 -2.91952
7.398 -5.21485 -2.96759
6.78345 -4.78165 -2.92992
6.26598 -4.41689 -2.90277
5.82844 -4.10847 -2.88774
5.4687 -3.85489 -2.88813
5.10635 -3.59946 -2.86636
4.81616 -3.39491 -2.86892
4.54366 -3.20282 -2.86499
4.28256 -3.01878 -2.85313
4.04234 -2.84944 -2.84223
26.2034 -18.5805 -2.90607
9.43088 -6.68732 -1.26119
17.9411 -12.7218 -3.00023
15.6755 -11.1153 -3.06633
13.8201 -9.79967 -3.10122
12.4139 -8.80252 -3.14389
9.3949 -6.66181 -2.63809
9.34186 -6.6242 -2.90719
8.48276 -6.01502 -2.89104
7.87269 -5.58243 -2.92071
7.37259 -5.22782 -2.96311
6.76394 -4.79623 -2.92718
6.24906 -4.43114 -2.90058
5.82146 -4.12793 -2.89006
5.46388 -3.87437 -2.89139
5.09333 -3.61162 -2.86465
4.80229 -3.40525 -2.86623
4.53614 -3.21652 -2.86593
4.26274 -3.02266 -2.84529
4.01893 -2.84978 -2.83101
26.0833 -18.6119 -2.89864
21.4238 -15.2871 -2.98696
17.8759 -12.7555 -2.9955
9.4285 -6.72776 -1.81217
13.7942 -9.84291 -3.10196
12.3956 -8.84499 -3.14596
9.40836 -6.7134 -2.64778
9.28751 -6.62716 -2.89604
8.46957 -6.04352 -2.89269
7.85299 -5.60355 -2.91952
7.34625 -5.24197 -2.95863
6.74662 -4.8141 -2.92581
6.22982 -4.44533 -2.89768
5.80018 -4.13875 -2.88543
5.44344 -3.8842 -2.88651
5.08406 -3.62776 -2.86551
4.7878 -3.41637 -2.86353
4.51651 -3.22279 -2.85935
4.26085 -3.04035 -2.85019
4.02166 -2.86968 -2.83917
25.994 -18.6717 -2.89511
9.47697 -6.80739 -1.27373
17.8052 -12.7896 -2.99021
9.43136 -6.77462 -1.81703
13.7632 -9.8862 -3.10196
9.40772 -6.75765 -2.37128
9.41726 -6.7645 -2.65654
9.26979 -6.65857 -2.89706
8.44742 -6.06785 -2.89159
7.83069 -5.62485 -2.91773
7.32052 -5.25839 -2.95479
6.72994 -4.83417 -2.92513
6.21583 -4.46488 -2.89768
5.78115 -4.15265 -2.88235
5.42527 -3.89702 -2.88325
5.07411 -3.64477 -2.86636
4.77705 -3.43139 -2.86353
4.51497 -3.24314 -2.86499
4.24703 -3.05067 -2.84725
4.01961 -2.88732 -2.84427
25.8739 -18.7021 -2.88768
9.47444 -6.84828 -1.27629
17.7784 -12.8505 -2.99216
9.43041 -6.81645 -1.82092
13.7386 -9.93045 -3.10307
12.3414 -8.92055 -3.14596
9.42396 -6.81179 -2.66438
9.23118 -6.67244 -2.89098
8.42003 -6.08613 -2.88828
7.81552 -5.64918 -2.91833
7.30335 -5.27897 -2.95415
6.70643 -4.84751 -2.92102
6.19953 -4.48112 -2.89622
5.7688 -4.16978 -2.88235
5.40924 -3.90989 -2.88081
5.05887 -3.65663 -2.8638
4.77119 -3.44869 -2.86623
4.50103 -3.25342 -2.86217
4.23937 -3.06428 -2.84823
4.01521 -2.90225 -2.84733
25.8183 -18.7788 -2.88768
9.4846 -6.89856 -1.2807
17.737 -12.9009 -2.9916
9.41812 -6.8502 -1.82254
13.6963 -9.96192 -3.10011
9.40701 -6.84212 -2.38168
9.42102 -6.85231 -2.66945
9.21447 -6.70208 -2.89199
8.41593 -6.12126 -2.89324
7.80953 -5.6802 -2.9225
7.27692 -5.29282 -2.94967
6.69353 -4.86849 -2.92171
6.18018 -4.49511 -2.89331
5.75491 -4.18579 -2.88158
5.39466 -3.92377 -2.87919
5.05093 -3.67375 -2.86551
4.75804 -3.46073 -2.86443
4.4885 -3.26468 -2.86029
4.22603 -3.07377 -2.84529
3.99127 -2.90302 -2.83611
25.6645 -18.7836 -2.87635
9.44967 -6.91611 -1.27861
17.6858 -12.9441 -2.98937
15.5084 -11.3505 -3.06665
13.6572 -9.99554 -3.09788
12.2882 -8.99363 -3.14596
9.41478 -6.89058 -2.6736
9.1883 -6.72482 -2.88997
8.39618 -6.14507 -2.89269
7.80497 -5.71237 -2.92726
7.25201 -5.30767 -2.94583
6.66996 -4.88167 -2.9176
6.16231 -4.51013 -2.89113
5.74098 -4.20176 -2.88081
5.34466 -3.9117 -2.85804
5.03854 -3.68766 -2.86465
4.74343 -3.47166 -2.86174
4.4731 -3.27381 -2.85654
4.22111 -3.08939 -2.84823
3.98542 -2.91689 -2.83815
30.9321 -22.7885 2.77741
25.5765 -18.8428 -2.87301
21.0868 -15.5352 -2.97209
17.6307 -12.989 -2.98687
15.4409 -11.3757 -3.06017
13.632 -10.0431 -3.09937
12.2725 -9.04147 -3.14929
9.41346 -6.93513 -2.67959
9.12818 -6.72496 -2.8773
8.37838 -6.17256 -2.89324
7.80389 -5.74932 -2.93382
7.22462 -5.32256 -2.94134
6.65459 -4.9026 -2.9176
6.14661 -4.52836 -2.8904
5.72478 -4.21759 -2.87926
5.33529 -3.93064 -2.85966
5.02111 -3.69918 -2.86123
4.72818 -3.48337 -2.85905
4.47274 -3.29518 -2.86311
4.20717 -3.09953 -2.84529
3.9707 -2.92531 -2.83407
30.7525 -22.7889 0.090805
30.7314 -22.7732 -0.79724
30.7095 -22.757 -1.69166
25.575 -18.9521 -2.87895
9.48188 -7.02647 -1.2893
17.6039 -13.0453 -2.98854
15.4075 -11.4176 -3.05985
13.5945 -10.0741 -3.09714
12.2409 -9.07105 -3.14763
9.41282 -6.97529 -2.68513
9.13735 -6.77116 -2.88642
8.36574 -6.19937 -2.8949
7.80314 -5.78246 -2.93977
7.21126 -5.34384 -2.94198
6.63936 -4.92005 -2.91692
6.13693 -4.54772 -2.89186
5.70705 -4.22916 -2.87618
5.34484 -3.96075 -2.87105
5.00205 -3.70673 -2.8561
4.71556 -3.49443 -2.85725
4.45501 -3.30135 -2.85748
4.1901 -3.10504 -2.83941
3.96113 -2.93536 -2.83305
25.5042 -19.0172 -2.87728
9.49124 -7.07713 -1.29371
17.4921 -13.043 -2.97573
15.3767 -11.4656 -3.06049
9.43167 -7.03271 -2.12584
9.45061 -7.04683 -2.41495
10.3859 -7.74423 -2.97886
9.10946 -6.79246 -2.88389
8.3319 -6.21267 -2.88939
7.80432 -5.81928 -2.94692
7.18626 -5.35842 -2.93814
6.62022 -4.93635 -2.91487
6.11445 -4.55923 -2.88749
5.69595 -4.24718 -2.87695
5.32721 -3.97223 -2.8678
4.99972 -3.72804 -2.86123
4.70947 -3.51161 -2.85994
4.44378 -3.3135 -2.85654
4.18226 -3.1185 -2.84039
3.94965 -2.94505 -2.83101
25.2263 -18.9267 -2.85145
9.48451 -7.11599 -1.2958
17.4581 -13.0984 -2.97657
15.3584 -11.5231 -3.06374
9.44063 -7.08307 -2.13287
9.43123 -7.07602 -2.41536
10.3815 -7.78902 -2.98439
9.14653 -6.86242 -2.90263
8.3042 -6.23044 -2.88608
7.80993 -5.8596 -2.95586
7.16881 -5.37858 -2.9375
6.59802 -4.95034 -2.91145
6.09941 -4.57623 -2.88676
5.67742 -4.25963 -2.87387
5.31394 -3.98692 -2.86698
4.9843 -3.7396 -2.85866
4.69475 -3.52235 -2.85725
4.40568 -3.30547 -2.83776
4.17299 -3.13089 -2.84039
3.94777 -2.96191 -2.83611
24.4182 -18.4406 -2.76395
9.49539 -7.17089 -1.30068
17.4342 -13.1663 -2.97963
15.3395 -11.5843 -3.0673
9.42147 -7.11507 -2.13361
9.43393 -7.12448 -2.42202
10.4751 -7.91073 -3.01944
9.12184 -6.88879 -2.90161
8.2984 -6.26692 -2.89104
7.80671 -5.89561 -2.96182
7.1428 -5.39423 -2.93366
6.57944 -4.96877 -2.91008
6.07608 -4.58864 -2.8824
5.66254 -4.27633 -2.8731
5.29993 -4.00249 -2.86617
4.9682 -3.75197 -2.8561
4.68223 -3.53601 -2.85635
4.41641 -3.33526 -2.85184
4.16174 -3.14294 -2.83941
3.93433 -2.97119 -2.83305
24.4871 -18.6069 -2.77844
9.45509 -7.18461 -1.29789
17.403 -13.224 -2.98102
15.2532 -11.5904 -3.0566
13.4894 -10.2501 -3.10122
9.42521 -7.1619 -2.42534
10.5089 -7.98534 -3.0365
9.09211 -6.9088 -2.89858
8.28895 -6.2985 -2.89435
7.80287 -5.92914 -2.96718
7.12375 -5.4131 -2.93238
6.56317 -4.98714 -2.9094
6.06244 -4.60665 -2.8824
5.64248 -4.28753 -2.86924
5.27348 -4.00715 -2.85804
4.95993 -3.76888 -2.85781
4.67172 -3.54988 -2.85635
4.40087 -3.34408 -2.84809
4.15379 -3.15633 -2.84039
3.93097 -2.98702 -2.83713
24.3353 -18.6057 -2.76711
20.7028 -15.8285 -2.95676
17.3967 -13.3008 -2.98687
15.2297 -11.644 -3.05887
13.4558 -10.2877 -3.10048
12.0179 -9.1884 -3.12476
9.67965 -7.40065 -2.79626
9.05006 -6.91929 -2.89148
8.28092 -6.33124 -2.89821
7.80193 -5.96502 -2.97373
7.10013 -5.42846 -2.92918
6.54536 -5.00431 -2.90803
6.0443 -4.62122 -2.88022
5.65026 -4.31995 -2.88003
5.27028 -4.02943 -2.86292
4.94441 -3.78029 -2.85524
4.65691 -3.56047 -2.85366
4.39233 -3.35819 -2.84903
4.14579 -3.16969 -2.84137
3.91116 -2.99031 -2.82897
24.3227 -18.704 -2.77175
9.49072 -7.29829 -1.30928
17.3344 -13.33 -2.98242
15.1831 -11.6757 -3.05595
13.4395 -10.3348 -3.10344
11.9984 -9.22669 -3.12642
9.45377 -7.26987 -2.73493
9.05831 -6.96577 -2.9006
8.27539 -6.36371 -2.90262
7.79129 -5.99144 -2.97611
7.08194 -5.44596 -2.9279
6.52689 -5.01913 -2.90598
6.02251 -4.63127 -2.87585
5.6411 -4.33796 -2.88158
5.26046 -4.04525 -2.86373
4.93384 -3.79408 -2.85524
4.64269 -3.5702 -2.85096
4.38434 -3.37152 -2.84997
4.13554 -3.1802 -2.84039
3.90552 -3.00332 -2.83101
24.2559 -18.7742 -2.77082
9.5023 -7.35482 -1.31439
17.2533 -13.3541 -2.97546
15.1276 -11.7088 -3.05206
13.3883 -10.3626 -3.09899
9.44772 -7.31257 -2.44863
9.45705 -7.31979 -2.74277
9.04097 -6.99774 -2.90212
8.24928 -6.38497 -2.90041
7.76186 -6.00771 -2.97194
7.0588 -5.46354 -2.92534
6.50515 -5.03501 -2.90324
6.00057 -4.64446 -2.87221
5.61577 -4.34662 -2.87541
5.24483 -4.05952 -2.8621
4.92332 -3.81067 -2.8561
4.6357 -3.58805 -2.85366
4.36953 -3.38204 -2.84715
4.12415 -3.19211 -2.83941
3.89743 -3.01662 -2.83203
24.1089 -18.7818 -2.76042
9.48855 -7.39196 -1.31578
17.194 -13.3948 -2.9724
15.0783 -11.7466 -3.04947
13.3727 -10.4179 -3.10307
9.44939 -7.36145 -2.45528
9.4601 -7.36979 -2.75061
9.02047 -7.0273 -2.90263
8.20188 -6.38959 -2.89049
7.73542 -6.0262 -2.96896
7.03862 -5.48336 -2.92406
6.48188 -5.04964 -2.89982
5.98889 -4.66558 -2.87367
5.59189 -4.35631 -2.87001
5.23061 -4.07485 -2.86129
4.90135 -3.81834 -2.85011
4.61876 -3.5982 -2.85007
4.3575 -3.39466 -2.84621
4.11685 -3.20719 -2.84137
3.88793 -3.02885 -2.83203
24.0656 -18.863 -2.76191
9.50879 -7.45316 -1.32205
17.1511 -13.4434 -2.97184
15.0744 -11.8156 -3.05595
13.3325 -10.4502 -3.10085
9.45522 -7.41118 -2.46277
9.45351 -7.40983 -2.75522
8.98283 -7.0409 -2.89706
8.18743 -6.41746 -2.89214
7.716 -6.04795 -2.96837
7.01635 -5.49954 -2.9215
6.46243 -5.06538 -2.89777
5.96915 -4.67873 -2.87076
5.57459 -4.36946 -2.8677
5.21706 -4.08923 -2.86048
4.89711 -3.83844 -2.85439
4.60806 -3.61189 -2.85007
4.34879 -3.40866 -2.84715
4.10457 -3.21724 -2.83941
3.87487 -3.03719 -2.82897
29.4154 -23.1892 4.47108
29.3768 -23.1588 3.58075
29.315 -23.1101 2.70109
24.1035 -19.0017 -2.77268
9.5207 -7.50551 -1.32693
17.1026 -13.4826 -2.96989
15.0398 -11.8564 -3.05563
13.2924 -10.4789 -3.09825
11.8265 -9.32328 -3.1102
9.42667 -7.43138 -2.75337
8.96161 -7.06476 -2.89655
8.15438 -6.42839 -2.88663
7.68559 -6.05883 -2.96301
6.99352 -5.51325 -2.9183
6.44679 -5.08224 -2.89708
5.95606 -4.69538 -2.87076
5.53917 -4.36673 -2.85537
5.20992 -4.10717 -2.86292
4.88353 -3.84986 -2.85267
4.59936 -3.62585 -2.85096
4.3351 -3.41751 -2.84433
4.0942 -3.22761 -2.83843
3.86502 -3.04693 -2.82795
29.1836 -23.1555 0.090805
29.1522 -23.1306 -0.773194
29.0924 -23.0832 -1.64107
24.2013 -19.2023 -2.79145
9.49396 -7.53292 -1.32647
17.0741 -13.5474 -2.9724
14.9932 -11.8963 -3.05368
13.2641 -10.5243 -3.09937
9.45246 -7.49999 -2.47399
9.39565 -7.45491 -2.75107
8.94089 -7.09408 -2.89706
8.12962 -6.45039 -2.88498
7.65605 -6.07464 -2.95884
6.97172 -5.53166 -2.91637
6.42784 -5.10013 -2.89572
5.9442 -4.71639 -2.87221
5.51386 -4.37494 -2.8492
5.18841 -4.11671 -2.85804
4.87141 -3.86519 -2.85267
4.57955 -3.63361 -2.84558
4.32434 -3.43112 -2.84433
4.08404 -3.24046 -2.83843
3.85543 -3.05906 -2.82795
29.0161 -23.1466 -2.50469
24.2723 -19.3625 -2.80594
9.48197 -7.56394 -1.32763
17.0556 -13.6056 -2.97546
14.942 -11.9195 -3.04947
9.4691 -7.55368 -2.19138
9.47561 -7.55887 -2.48564
9.41414 -7.50983 -2.7626
8.91018 -7.10782 -2.893
8.11872 -6.47645 -2.88718
7.63415 -6.0899 -2.95645
6.94684 -5.54162 -2.91189
6.4086 -5.11225 -2.89298
5.92164 -4.7238 -2.86712
5.52547 -4.40777 -2.86153
5.17618 -4.12914 -2.85722
4.85986 -3.8768 -2.85182
4.56723 -3.64336 -2.84378
4.31396 -3.44132 -2.84339
4.066 -3.24353 -2.83157
3.85413 -3.07451 -2.83305
24.1834 -19.4162 -2.80259
9.49999 -7.62727 -1.3339
17.0082 -13.6554 -2.97462
14.9152 -11.975 -3.05174
13.1726 -10.5759 -3.09196
9.44876 -7.58615 -2.48481
9.43602 -7.57592 -2.77643
8.86669 -7.11881 -2.88591
8.10433 -6.50674 -2.88939
7.59563 -6.09831 -2.94871
6.92792 -5.56223 -2.91125
6.38957 -5.13001 -2.89161
5.90677 -4.74238 -2.86712
5.50872 -4.4228 -2.85999
5.16176 -4.14423 -2.85641
4.83779 -3.88413 -2.84583
4.55158 -3.65433 -2.84109
4.30588 -3.45707 -2.84527
4.05715 -3.25738 -2.83255
3.83774 -3.08122 -2.82795
24.0743 -19.4533 -2.79683
9.50379 -7.67955 -1.33808
9.48005 -7.66037 -1.62214
14.8683 -12.0144 -3.04979
13.1699 -10.6419 -3.09937
9.47966 -7.66006 -2.49978
9.43488 -7.62387 -2.78335
8.82622 -7.13204 -2.87983
8.07787 -6.52733 -2.88718
7.57494 -6.12095 -2.94811
6.90747 -5.58159 -2.90997
6.36465 -5.14297 -2.88751
5.8846 -4.75506 -2.86348
5.49767 -4.4424 -2.86153
5.15156 -4.16273 -2.85804
4.82978 -3.90272 -2.8484
4.54981 -3.67648 -2.84737
4.28951 -3.46614 -2.84151
4.04419 -3.26791 -2.8306
3.82537 -3.0911 -2.82591
23.9516 -19.4719 -2.78903
9.50562 -7.72776 -1.3418
9.49109 -7.71595 -1.62826
14.8188 -12.0472 -3.04688
13.1352 -10.6785 -3.09863
9.47511 -7.70296 -2.50476
9.44091 -7.67516 -2.79211
8.80802 -7.16064 -2.88085
8.03311 -6.53066 -2.87781
7.55231 -6.13978 -2.94633
6.87029 -5.58533 -2.90101
6.35082 -5.16301 -2.88819
5.87046 -4.7725 -2.86348
5.47587 -4.45171 -2.85691
5.13493 -4.17453 -2.8556
4.81398 -3.91361 -2.84583
4.52917 -3.68207 -2.84109
4.28057 -3.47997 -2.84245
4.03718 -3.2821 -2.83255
3.81885 -3.1046 -2.82795
23.9303 -19.5798 -2.79386
9.50128 -7.77394 -1.34482
9.49899 -7.77207 -1.63411
14.7534 -12.0712 -3.04104
13.1107 -10.7272 -3.10085
9.44481 -7.72773 -2.5031
9.44085 -7.7245 -2.79949
8.79746 -7.19808 -2.8849
8.00808 -6.55221 -2.87616
7.51968 -6.1526 -2.94096
6.87031 -5.62128 -2.90869
6.33457 -5.18294 -2.88819
5.85112 -4.78738 -2.8613
5.46186 -4.46889 -2.85691
5.12038 -4.18949 -2.85478
4.80026 -3.92757 -2.84497
4.51758 -3.69628 -2.84109
4.26689 -3.49116 -2.84057
4.02955 -3.29697 -2.83451
3.80242 -3.11114 -2.82284
23.8341 -19.6124 -2.78884
9.48567 -7.80549 -1.34575
9.49102 -7.80989 -1.63661
9.48341 -7.80363 -1.92695
13.061 -10.7475 -3.09603
9.46549 -7.78888 -2.51474
9.44479 -7.77185 -2.80733
8.7594 -7.20786 -2.87882
7.99124 -6.57577 -2.87671
7.49952 -6.17115 -2.93977
6.84581 -5.63322 -2.90485
6.31137 -5.19345 -2.88409
5.8406 -4.80607 -2.86276
5.44936 -4.48412 -2.85691
