# .PCD v0.7 - Point Cloud Data file format
VERSION 0.7
FIELDS x y z
SIZE 4 4 4
TYPE F F F
COUNT 1 1 1
WIDTH 1793
HEIGHT 1
VIEWPOINT 0 0 0 1 0 0 0
POINTS 1793
DATA ascii
-12.1596 -4.012 -1.10379
-12.4882 -4.1204 -1.44703
-12.5487 -4.14038 -1.76632
-11.6161 -3.83265 -1.91884
-11.4581 -3.78054 -2.18249
-10.3386 -3.41115 -2.22325
-9.43465 -3.11291 -2.26321
-8.66138 -2.85777 -2.29685
-7.9236 -2.61434 -2.30173
-7.47529 -2.46643 -2.36547
-6.95267 -2.29399 -2.38306
-6.69637 -2.20943 -2.47571
-6.26824 -2.06817 -2.48665
-5.9096 -1.94984 -2.50849
-5.57483 -1.83938 -2.52289
-5.25135 -1.73265 -2.52667
-4.97794 -1.64244 -2.54216
-4.74751 -1.56641 -2.56734
-4.51378 -1.48929 -2.5798
-4.28661 -1.41434 -2.58616
-43.228 -14.1207 8.6589
-43.5304 -14.2195 6.52673
-43.6569 -14.2608 5.46161
-43.7151 -14.2798 4.3813
-43.87 -14.3305 3.31802
-43.9674 -14.3623 2.2478
-30.5583 -9.98209 0.837171
-44.2376 -14.4505 0.090805
-29.5211 -9.64329 -1.35747
-11.4606 -3.74369 -0.752272
-11.4976 -3.75577 -1.03765
-11.8961 -3.88595 -1.37269
-12.1393 -3.96537 -1.70397
-11.5711 -3.77978 -1.90911
-11.4544 -3.74165 -2.17953
-10.3505 -3.38107 -2.22367
-9.44014 -3.08369 -2.26228
-8.67534 -2.83386 -2.29837
-7.93315 -2.59142 -2.30228
-7.47895 -2.44305 -2.36428
-6.99006 -2.28335 -2.39394
-6.70647 -2.19072 -2.47708
-6.27258 -2.04898 -2.48592
-5.91185 -1.93115 -2.50695
-5.57679 -1.8217 -2.52126
-5.26334 -1.71931 -2.53009
-4.98449 -1.62822 -2.54305
-4.74878 -1.55122 -2.56547
-4.51486 -1.47481 -2.57784
-4.29242 -1.40215 -2.58718
-43.1132 -13.9335 8.62743
-43.25 -13.9777 7.5584
-43.4297 -14.0358 6.50529
-43.5124 -14.0625 5.43838
-43.6385 -14.1033 4.36941
-43.7174 -14.1288 3.30351
-30.5246 -9.86506 1.58678
-30.658 -9.90817 0.838843
-44.1229 -14.2598 0.090805
-29.4581 -9.5204 -1.35291
-11.4305 -3.69417 -0.749202
-11.7329 -3.79189 -1.05957
-12.8477 -4.15217 -1.48815
-11.6918 -3.77861 -1.63606
-11.5923 -3.74645 -1.91074
-11.4361 -3.69597 -2.1736
-10.3518 -3.34553 -2.22159
-9.44423 -3.05222 -2.2609
-8.68972 -2.80838 -2.29989
-7.93027 -2.56294 -2.29897
-7.47932 -2.41719 -2.3619
-7.02785 -2.27129 -2.40483
-6.7008 -2.16559 -2.47229
-6.27544 -2.02812 -2.48447
-5.91964 -1.91313 -2.50772
-5.57553 -1.80192 -2.518
-5.26012 -1.69999 -2.52581
-4.98958 -1.61255 -2.54305
-4.75867 -1.53793 -2.56828
-4.52445 -1.46223 -2.58078
-4.28698 -1.38548 -2.58106
-42.9915 -13.7534 8.59521
-43.1259 -13.7964 7.52987
-43.2976 -13.8513 6.47968
-43.4215 -13.891 5.42212
-43.5037 -13.9173 4.35213
-43.6071 -13.9504 3.29235
-30.3425 -9.70688 1.57644
-30.8015 -9.85372 0.841628
-43.986 -14.0716 0.090805
-29.2465 -9.35625 -1.34117
-11.4015 -3.64747 -0.746273
-11.856 -3.79286 -1.07053
-12.1183 -3.87676 -1.39708
-11.4502 -3.66304 -1.59876
-11.5263 -3.68738 -1.89744
-11.3871 -3.64286 -2.16175
-10.3505 -3.31122 -2.21909
-9.43471 -3.01826 -2.25629
-8.68143 -2.77728 -2.29533
-7.92502 -2.5353 -2.29511
-7.45736 -2.38569 -2.35236
-7.02734 -2.24812 -2.40227
-6.69288 -2.14112 -2.46682
-6.27788 -2.00836 -2.48301
-5.93232 -1.89781 -2.5108
-5.58608 -1.78704 -2.52044
-5.25481 -1.68107 -2.52068
-4.99094 -1.59665 -2.54126
-4.76321 -1.5238 -2.56828
-4.52711 -1.44827 -2.5798
-4.29107 -1.37276 -2.58106
-42.8761 -13.5846 8.56485
-42.9761 -13.6163 7.49744
-43.1662 -13.6765 6.45463
-43.2954 -13.7175 5.40191
-43.3716 -13.7416 4.33541
-43.4937 -13.7803 3.28119
-30.04 -9.51772 1.56033
-30.3772 -9.62454 0.830626
-29.7161 -9.4151 0.090805
-29.3658 -9.30411 -1.34573
-11.3794 -3.60537 -0.743901
-11.4812 -3.63765 -1.03282
-11.5042 -3.64491 -1.32043
-11.4566 -3.62985 -1.5982
-11.5008 -3.64385 -1.89128
-11.4066 -3.61402 -2.16361
-10.3448 -3.27758 -2.21577
-9.44866 -2.99366 -2.25767
-8.69653 -2.75536 -2.29736
-7.97056 -2.52535 -2.30669
-7.44943 -2.36024 -2.3476
-7.01553 -2.22276 -2.39586
-6.68271 -2.11731 -2.46067
-6.29056 -1.99307 -2.48592
-5.92704 -1.87789 -2.50617
-5.59279 -1.77199 -2.52126
-5.2681 -1.66911 -2.52495
-4.99367 -1.58217 -2.54036
-4.7624 -1.50889 -2.56547
-4.52282 -1.43299 -2.5749
-4.29489 -1.36077 -2.58106
-42.7793 -13.4144 8.53781
-42.86 -13.4397 7.47053
-43.046 -13.498 6.43098
-43.1861 -13.542 5.38356
-43.2316 -13.5563 4.31776
-43.3917 -13.6064 3.27072
-43.4409 -13.6219 2.21389
-29.2742 -9.1796 0.803098
-29.7573 -9.33108 0.090805
-29.8318 -9.35443 -1.36716
-11.3519 -3.55965 -0.741111
-11.376 -3.56722 -1.02148
-11.6192 -3.64345 -1.3332
-11.439 -3.58695 -1.59403
-11.4777 -3.59909 -1.88544
-11.3742 -3.56663 -2.15509
-10.3731 -3.25272 -2.21993
-9.4575 -2.96562 -2.25767
-8.71943 -2.73418 -2.30141
-7.9982 -2.50802 -2.31275
-7.42908 -2.32956 -2.33866
-7.02028 -2.20137 -2.39522
-6.66565 -2.09016 -2.45177
-6.30712 -1.97774 -2.49029
-5.93083 -1.85975 -2.5054
-5.59105 -1.7532 -2.518
-5.27993 -1.65564 -2.52838
-4.99664 -1.56681 -2.53946
-4.76517 -1.49423 -2.56453
-4.52872 -1.42008 -2.57588
-4.30548 -1.35008 -2.58514
-42.6767 -13.2351 8.5093
-42.7776 -13.2664 7.44913
-42.9633 -13.324 6.4126
-43.0748 -13.3586 5.36474
-43.1295 -13.3755 4.30364
-43.2837 -13.4234 3.2597
-30.1892 -9.36244 1.5648
-29.3545 -9.10358 0.804351
-29.6967 -9.2097 0.090805
-28.9718 -8.98489 -1.32375
-11.323 -3.51156 -0.738181
-11.3396 -3.51672 -1.01684
-11.4351 -3.54633 -1.30928
-14.4504 -4.48143 -2.03548
-11.4889 -3.56301 -1.88544
-11.3478 -3.51924 -2.14768
-10.3777 -3.21838 -2.21868
-9.47049 -2.93704 -2.25859
-8.72613 -2.7062 -2.3009
-8.00787 -2.48345 -2.3133
-7.43089 -2.30451 -2.33687
-7.01812 -2.1765 -2.39202
-6.65244 -2.06309 -2.44425
-6.29728 -1.95295 -2.48374
-5.92959 -1.83892 -2.50232
-5.60176 -1.73725 -2.52044
-5.27992 -1.63744 -2.52581
-5.00666 -1.55269 -2.54216
-4.76815 -1.47873 -2.56359
-4.53316 -1.40585 -2.57588
-4.30969 -1.33655 -2.58514
-42.526 -13.0502 8.4719
-42.6772 -13.0966 7.42514
-42.8531 -13.1506 6.39062
-42.9623 -13.1841 5.34616
-43.0262 -13.2037 4.28971
-29.9509 -9.19123 2.28158
-30.1729 -9.25935 1.56265
-29.1807 -8.95485 0.799477
-31.307 -9.60738 0.090805
-28.92 -8.87486 -1.31993
-11.3048 -3.46917 -0.736088
-11.312 -3.47137 -1.01312
-11.3943 -3.49665 -1.303
-12.3657 -3.79474 -1.72707
-11.3504 -3.48317 -1.85983
-11.3093 -3.47056 -2.13806
-10.3909 -3.18872 -2.21951
-9.49033 -2.91235 -2.26136
-8.72857 -2.67859 -2.29938
-8.00234 -2.45573 -2.30945
-7.42857 -2.27965 -2.3339
-7.01549 -2.15288 -2.38882
-6.63697 -2.03673 -2.43604
-6.29771 -1.93262 -2.48156
-5.93326 -1.82078 -2.50155
-5.60165 -1.71901 -2.518
-5.28648 -1.6223 -2.52667
-5.00612 -1.53626 -2.53946
-4.77759 -1.46613 -2.5664
-4.53898 -1.3929 -2.57686
-4.31364 -1.32375 -2.58514
-42.437 -12.8772 8.44635
-42.5406 -12.9086 7.39466
-42.7426 -12.9699 6.36835
-42.821 -12.9937 5.32386
-42.9264 -13.0257 4.27596
-43.0193 -13.0539 3.23445
-30.2248 -9.17147 1.56377
-29.3751 -8.91364 0.803516
-43.3961 -13.1682 0.090805
-28.9688 -8.79035 -1.32095
-11.2908 -3.42611 -0.734275
-11.2866 -3.42483 -1.00959
-11.3824 -3.45391 -1.30022
-12.0402 -3.65351 -1.67753
-11.3991 -3.45895 -1.86631
-11.307 -3.43102 -2.13546
-10.4084 -3.15834 -2.22117
-9.45474 -2.86896 -2.25029
-8.70177 -2.64048 -2.28976
-7.9861 -2.42332 -2.30228
-7.44483 -2.25907 -2.33687
-7.00771 -2.12643 -2.3837
-6.62355 -2.00986 -2.42851
-6.3091 -1.91444 -2.48374
-5.94778 -1.80481 -2.5054
-5.61227 -1.703 -2.52044
-5.28291 -1.60306 -2.52239
-5.01092 -1.52052 -2.53946
-4.7771 -1.44957 -2.56359
-4.53833 -1.37712 -2.57392
-4.31778 -1.31019 -2.58514
-42.3282 -12.7071 8.41746
-42.4105 -12.7318 7.3658
-42.6101 -12.7918 6.3433
-42.73 -12.8278 5.30806
-42.7818 -12.8433 4.25812
-42.9011 -12.8791 3.22301
-42.986 -12.9046 2.1838
-29.3497 -8.81092 0.802262
-43.2798 -12.9928 0.090805
-29.0483 -8.72044 -1.32356
-11.2436 -3.37538 -0.730089
-11.2509 -3.37758 -1.00513
-11.3451 -3.40585 -1.29441
-11.8822 -3.56709 -1.65276
-11.3601 -3.41036 -1.85788
-11.304 -3.3935 -2.13287
-10.4121 -3.12575 -2.21993
-9.4688 -2.84258 -2.25168
-8.70401 -2.61298 -2.28824
-7.98589 -2.3974 -2.30007
-7.4515 -2.23697 -2.33687
-6.98495 -2.09692 -2.37346
-6.60788 -1.98372 -2.42031
-6.31653 -1.89625 -2.48447
-5.94073 -1.78344 -2.50001
-5.61205 -1.68476 -2.518
-5.29283 -1.58893 -2.52495
-5.01541 -1.50565 -2.53946
-4.78138 -1.43539 -2.56359
-4.53738 -1.36214 -2.57098
-4.31341 -1.29491 -2.58004
-42.2241 -12.5474 8.39006
-42.3097 -12.5729 7.34246
-42.4805 -12.6236 6.31908
-42.621 -12.6654 5.29041
-42.661 -12.6773 4.24289
-42.7992 -12.7183 3.21297
-30.6295 -9.10195 1.58092
-29.5371 -8.77734 0.806208
-43.1319 -12.8172 0.090805
-28.6742 -8.52092 -1.30418
-11.1803 -3.32238 -0.724788
-11.2183 -3.33367 -1.00105
-11.2765 -3.35095 -1.28488
-11.2941 -3.35618 -1.56508
-11.3166 -3.36288 -1.84881
-11.2588 -3.34569 -2.12213
-10.4058 -3.0922 -2.2166
-9.48603 -2.8189 -2.25398
-8.69458 -2.58371 -2.28368
-7.96675 -2.36742 -2.29236
-7.4504 -2.21398 -2.33449
-6.97807 -2.07362 -2.36897
-6.59178 -1.95883 -2.4121
-6.32181 -1.87861 -2.48447
-5.95808 -1.77052 -2.5054
-5.61673 -1.66908 -2.518
-5.29725 -1.57415 -2.52495
-5.02302 -1.49266 -2.54126
-4.78706 -1.42254 -2.56453
-4.54451 -1.35046 -2.57294
-4.3302 -1.28678 -2.5882
-42.0896 -12.3717 8.35637
-42.218 -12.4094 7.32041
-42.4152 -12.4674 6.30405
-42.5154 -12.4968 5.27299
-42.578 -12.5152 4.23118
-42.7047 -12.5525 3.20334
-30.6698 -9.01498 1.58157
-29.4921 -8.6688 0.804491
-29.2985 -8.61192 0.090805
-31.3509 -9.21518 -0.667863
-28.6994 -8.4358 -1.30418
-11.1767 -3.28525 -0.723811
-11.1689 -3.28296 -0.995287
-11.2826 -3.31636 -1.28442
-11.5529 -3.39583 -1.60154
-11.266 -3.31148 -1.83843
-11.246 -3.30561 -2.11769
-10.4205 -3.06297 -2.21785
-9.49622 -2.79129 -2.25444
-8.70035 -2.55735 -2.28317
-7.97928 -2.3454 -2.29401
-7.4551 -2.19133 -2.3339
-6.98601 -2.05344 -2.36961
-6.57773 -1.93344 -2.40457
-6.32735 -1.85984 -2.48447
-5.95976 -1.75179 -2.50386
-5.62341 -1.65293 -2.51882
-5.29149 -1.55536 -2.51982
-5.02743 -1.47775 -2.54126
-4.79126 -1.40833 -2.56453
-4.54515 -1.33599 -2.57098
-4.32245 -1.27053 -2.58106
-41.9942 -12.2004 8.33007
-42.109 -12.2338 7.29512
-42.2677 -12.2799 6.27677
-42.3866 -12.3144 5.25254
-42.4737 -12.3398 4.21725
-42.5753 -12.3693 3.19106
-30.792 -8.94589 1.58613
-29.763 -8.64695 0.810386
-31.0283 -9.01456 -0.659368
-28.5876 -8.30547 -1.29747
-11.095 -3.2234 -0.717114
-11.162 -3.24286 -0.993615
-11.2357 -3.26427 -1.27745
-11.2954 -3.28161 -1.56229
-11.2991 -3.28268 -1.84232
-11.2167 -3.25875 -2.10991
-10.4338 -3.03131 -2.21868
-9.52736 -2.76796 -2.25998
-8.7232 -2.53432 -2.28723
-8.0143 -2.32837 -2.30228
-7.43811 -2.16097 -2.32615
-6.98515 -2.02937 -2.36705
-6.5585 -1.90542 -2.395
-6.33137 -1.83943 -2.48374
-5.95815 -1.731 -2.50078
-5.62858 -1.63525 -2.51882
-5.3033 -1.54075 -2.52324
-5.02861 -1.46095 -2.53946
-4.78888 -1.3913 -2.56077
-4.551 -1.32219 -2.57196
-4.33137 -1.25838 -2.58412
-41.8902 -12.0435 8.30304
-41.9856 -12.0709 7.2682
-42.1686 -12.1235 6.25729
-42.2605 -12.1499 5.23303
-42.353 -12.1765 4.2022
-42.4716 -12.2106 3.18102
-42.5368 -12.2294 2.15482
-28.7936 -8.27818 0.786386
-28.482 -8.18862 -1.29123
-11.0714 -3.18304 -0.714743
-11.1289 -3.19957 -0.989528
-11.2028 -3.22081 -1.27234
-11.2493 -3.23418 -1.55422
-11.2285 -3.22821 -1.8287
-11.2144 -3.22416 -2.10769
-10.4517 -3.00487 -2.22076
-9.52009 -2.73704 -2.25629
-8.76744 -2.52065 -2.29736
-8.02077 -2.30598 -2.30228
-7.43127 -2.1365 -2.32198
-6.99625 -2.01143 -2.36897
-6.54935 -1.88295 -2.38952
-6.33111 -1.8202 -2.48156
-5.9736 -1.71742 -2.5054
-5.62785 -1.61801 -2.51638
-5.30584 -1.52544 -2.52239
-5.03611 -1.44789 -2.54126
-4.79444 -1.37841 -2.56171
-4.55467 -1.30947 -2.57196
-4.3266 -1.2439 -2.57902
-41.8069 -11.8774 8.27934
-41.9189 -11.9093 7.25037
-42.0617 -11.9499 6.23613
-42.1647 -11.9791 5.21677
-42.2359 -11.9993 4.18715
-42.3755 -12.039 3.17125
-30.8445 -8.76301 1.58613
-29.3099 -8.32702 0.798224
-30.8428 -8.76252 -0.653612
-28.4596 -8.08545 -1.2889
-11.1255 -3.16078 -0.717952
-11.1063 -3.15534 -0.98637
-11.1536 -3.16877 -1.26514
-11.1127 -3.15715 -1.53279
-11.2272 -3.18968 -1.82676
-11.1716 -3.17387 -2.09732
-10.4648 -2.97309 -2.22159
-9.47623 -2.69222 -2.24338
-8.77717 -2.49362 -2.29786
-8.01318 -2.27657 -2.29787
-7.4306 -2.11106 -2.3196
-6.99889 -1.9884 -2.36769
-6.54077 -1.85825 -2.38405
-6.34039 -1.80132 -2.48301
-5.96654 -1.69511 -2.50001
-5.63467 -1.60082 -2.51719
-5.30887 -1.50826 -2.52153
-5.03375 -1.4301 -2.53767
-4.79365 -1.36189 -2.55889
-4.55541 -1.29421 -2.57
-4.33214 -1.23077 -2.58004
-41.6886 -11.7103 8.24935
-41.7982 -11.7411 7.22378
-41.9692 -11.7891 6.21748
-42.0719 -11.818 5.2012
-42.1237 -11.8325 4.17285
-42.2727 -11.8744 3.16121
-30.9088 -8.68226 1.588
-30.1506 -8.46928 0.817906
-28.4642 -7.99557 -1.28797
-11.1079 -3.1202 -0.715998
-11.0735 -3.11053 -0.982283
-11.096 -3.11686 -1.25701
-11.4042 -3.20343 -1.57398
-11.1929 -3.14408 -1.8193
-11.1431 -3.13008 -2.08992
-10.4642 -2.93938 -2.21951
-9.46544 -2.65883 -2.23877
-8.74728 -2.4571 -2.28773
-8.0162 -2.25174 -2.29677
-7.42397 -2.08539 -2.31543
-6.99564 -1.96507 -2.36449
-6.53359 -1.83528 -2.37926
-6.34211 -1.78149 -2.48156
-5.97865 -1.6794 -2.50309
-5.63235 -1.58212 -2.51394
-5.3081 -1.49104 -2.51897
-5.0397 -1.41565 -2.53857
-4.80277 -1.34909 -2.56171
-4.55923 -1.28068 -2.57
-4.33412 -1.21745 -2.57902
-41.5927 -11.5425 8.22343
-41.6809 -11.567 7.19752
-41.8572 -11.6159 6.19577
-41.9538 -11.6427 5.18239
-42.0359 -11.6655 4.16077
-42.1464 -11.6961 3.14935
-30.5683 -8.48308 1.5702
-31.0036 -8.60389 0.837821
-28.2389 -7.83666 -1.27586
-11.0831 -3.07569 -0.713487
-11.0429 -3.06454 -0.978381
-11.0694 -3.07189 -1.25259
-11.1947 -3.10668 -1.54197
-11.2028 -3.10891 -1.8193
-11.1112 -3.0835 -2.08177
-10.479 -2.90806 -2.22076
-9.48125 -2.63116 -2.24061
-8.75309 -2.42909 -2.28723
-8.01767 -2.225 -2.29511
-7.43048 -2.06205 -2.31543
-6.99995 -1.94257 -2.36385
-6.53389 -1.81324 -2.37721
-6.34947 -1.76206 -2.48229
-5.97678 -1.65863 -2.50001
-5.64082 -1.5654 -2.51556
-5.31101 -1.47387 -2.51811
-5.04584 -1.40028 -2.53946
-4.80528 -1.33353 -2.56077
-4.56155 -1.26589 -2.56902
-4.3429 -1.20521 -2.58208
-41.4467 -11.3696 8.18825
-41.5647 -11.402 7.1719
-41.7253 -11.4461 6.17156
-41.8444 -11.4787 5.16496
-41.9206 -11.4996 4.14628
-42.0327 -11.5304 3.13861
-29.761 -8.16402 1.52995
-28.1521 -7.72267 0.76856
-28.1811 -7.73064 -1.27195
-11.0671 -3.03593 -0.711673
-11.0116 -3.0207 -0.97448
-11.0401 -3.02852 -1.24795
-11.0549 -3.03259 -1.52026
-11.2138 -3.07617 -1.81962
-11.0653 -3.03544 -2.07103
-10.465 -2.87074 -2.21577
-9.50966 -2.60868 -2.24568
-8.76212 -2.40362 -2.28773
-8.04093 -2.20578 -2.30007
-7.40159 -2.0304 -2.30411
-7.00751 -1.9223 -2.36449
-6.53743 -1.79334 -2.37653
-6.34929 -1.74173 -2.4801
-5.98524 -1.64187 -2.50155
-5.64015 -1.5472 -2.51312
-5.31885 -1.45907 -2.51982
-5.0448 -1.38389 -2.53677
-4.80922 -1.31926 -2.56077
-4.56529 -1.25235 -2.56902
-4.34148 -1.19095 -2.57902
-41.3664 -11.2157 8.16603
-41.4992 -11.2518 7.15504
-41.6406 -11.2901 6.1543
-41.7633 -11.3234 5.15103
-41.8026 -11.334 4.1316
-41.9301 -11.3686 3.1287
-30.8649 -8.36845 1.58213
-28.1517 -7.63283 0.768003
-30.91 -8.38069 0.090805
-28.1905 -7.64333 -1.27129
-11.0145 -2.98637 -0.707209
-10.9763 -2.97603 -0.970207
-12.0882 -3.2775 -1.37386
-11.0104 -2.98526 -1.51247
-11.2229 -3.04289 -1.81962
-11.0231 -2.98871 -2.06103
-10.481 -2.84173 -2.21743
-9.54928 -2.58912 -2.25352
-8.76735 -2.37711 -2.28723
-8.053 -2.18343 -2.30173
-7.41863 -2.01143 -2.30768
-7.0077 -1.90001 -2.36257
-6.56449 -1.77984 -2.38474
-6.35802 -1.72386 -2.48156
-5.9883 -1.62362 -2.50078
-5.64472 -1.53046 -2.51312
-5.31792 -1.44186 -2.51725
-5.05061 -1.36938 -2.53767
-4.81993 -1.30684 -2.56453
-4.5673 -1.23834 -2.56804
-4.34499 -1.17807 -2.57902
-39.8352 -10.6738 7.8609
-39.8949 -10.6898 6.87652
-41.649 -11.1598 5.13314
-41.7111 -11.1764 4.11953
-41.8403 -11.2111 3.11977
-29.9208 -8.01727 1.53536
-30.9071 -8.28153 0.83369
-28.2149 -7.56017 -1.27139
-10.9558 -2.9356 -0.702326
-10.9505 -2.93417 -0.966863
-10.9696 -2.93931 -1.23726
-16.0428 -4.29867 -2.24341
-11.0946 -2.9728 -1.79628
-10.9711 -2.93971 -2.04918
-10.5461 -2.82581 -2.22991
-9.58888 -2.56933 -2.26136
-8.77249 -2.35058 -2.28672
-8.06316 -2.16052 -2.30283
-7.44301 -1.99435 -2.31364
-7.00415 -1.87676 -2.35937
-6.56429 -1.7589 -2.38268
-6.36491 -1.70547 -2.48229
-5.98596 -1.60393 -2.4977
-5.64924 -1.51371 -2.51312
-5.32392 -1.42654 -2.51811
-5.05465 -1.35439 -2.53767
-4.81014 -1.28887 -2.55701
-4.57095 -1.22478 -2.56804
-4.34514 -1.16428 -2.57698
-40.0996 -10.6172 4.94172
-40.1078 -10.6194 3.96161
-30.2728 -8.01538 1.5512
-30.5739 -8.09511 0.825102
-27.9031 -7.38796 -1.25527
-10.9413 -2.89696 -0.700652
-10.9245 -2.89249 -0.963518
-10.9418 -2.89709 -1.23285
-10.9762 -2.90618 -1.50495
-11.0519 -2.92623 -1.78752
-10.9646 -2.90312 -2.04622
-10.5317 -2.7885 -2.22492
-9.62844 -2.54934 -2.2692
-8.77195 -2.32256 -2.28469
-8.07325 -2.13757 -2.30393
-7.45443 -1.97372 -2.31543
-7.01335 -1.85694 -2.36065
-6.59492 -1.74615 -2.39226
-6.36634 -1.68563 -2.48083
-5.99961 -1.58853 -2.50155
-5.6484 -1.49554 -2.51068
-5.32813 -1.41074 -2.51811
-5.05346 -1.33801 -2.53497
-4.81565 -1.27505 -2.55795
-4.57625 -1.21166 -2.56902
-4.35191 -1.15226 -2.57902
-30.281 -7.92148 1.55045
-30.4334 -7.96135 0.821156
-27.8979 -7.29806 -1.25396
-10.9209 -2.85691 -0.698559
-10.8964 -2.85049 -0.959989
-10.91 -2.85405 -1.22797
-10.9829 -2.8731 -1.50467
-11.0223 -2.88343 -1.78104
-10.9294 -2.85913 -2.0377
-10.5854 -2.76912 -2.23489
-9.62279 -2.51731 -2.26597
-8.78816 -2.29897 -2.28723
-8.0684 -2.11069 -2.30063
-7.44548 -1.94773 -2.31066
-7.0225 -1.83708 -2.36193
-6.64916 -1.73941 -2.41073
-6.37311 -1.6672 -2.48156
-5.99716 -1.56885 -2.49847
-5.66342 -1.48154 -2.51556
-5.33404 -1.39538 -2.51897
-5.05741 -1.32301 -2.53497
-4.81941 -1.26075 -2.55795
-4.57646 -1.1972 -2.56706
-4.35697 -1.13978 -2.58004
-39.8865 -10.3005 3.93412
-30.0465 -7.75937 1.53797
-29.0818 -7.51024 0.78815
-27.8955 -7.20388 -1.25275
-10.8816 -2.81011 -0.695071
-10.859 -2.8043 -0.95553
-10.892 -2.81281 -1.22472
-10.9132 -2.81828 -1.49326
-11.0027 -2.84139 -1.77618
-10.9079 -2.81692 -2.03178
-10.6148 -2.74123 -2.23947
-9.63442 -2.48804 -2.26689
-8.83094 -2.28055 -2.29685
-8.09919 -2.09158 -2.30779
-7.44232 -1.92194 -2.30768
-7.01539 -1.81169 -2.35745
-6.65823 -1.71946 -2.4121
-6.39275 -1.6509 -2.48738
-5.99848 -1.54908 -2.49693
-5.66274 -1.46237 -2.51312
-5.33665 -1.37816 -2.51811
-5.065 -1.30801 -2.53677
-4.81822 -1.24428 -2.55514
-4.58526 -1.18412 -2.57
-4.35387 -1.12437 -2.57596
-29.4325 -7.50773 1.50731
-29.0962 -7.42194 0.787964
-40.2356 -10.2634 0.090805
-27.9052 -7.11812 -1.25219
-10.8647 -2.7714 -0.693258
-10.7554 -2.74352 -0.944754
-10.883 -2.77606 -1.22263
-10.9062 -2.78197 -1.49104
-11.0531 -2.81947 -1.78331
-10.8705 -2.77288 -2.02289
-10.6248 -2.71021 -2.23989
-9.63987 -2.45896 -2.26643
-8.84703 -2.25673 -2.29938
-8.12771 -2.07324 -2.31441
-7.44614 -1.89938 -2.30709
-7.01523 -1.78946 -2.35553
-6.6451 -1.69505 -2.40526
-6.37415 -1.62594 -2.47792
-6.01557 -1.53447 -2.50232
-5.66705 -1.44557 -2.51312
-5.34072 -1.36232 -2.51811
-5.07059 -1.29342 -2.53767
-4.82702 -1.23129 -2.55795
-4.58199 -1.16879 -2.56608
-4.36218 -1.11272 -2.57902
-39.7892 -10.0239 4.88922
-29.6799 -7.47711 2.23107
-29.5283 -7.43891 1.51085
-29.1394 -7.34095 0.788475
-27.6588 -6.96794 -1.23934
-10.8245 -2.72697 -0.68977
-10.6843 -2.69165 -0.937137
-10.8392 -2.73066 -1.21636
-10.8606 -2.73605 -1.48324
-11.0749 -2.79003 -1.78558
-10.8558 -2.73486 -2.01845
-10.5816 -2.66577 -2.22866
-9.69242 -2.44176 -2.2775
-8.83493 -2.22574 -2.29432
-8.12824 -2.04771 -2.31275
-7.44619 -1.87588 -2.3053
-7.02786 -1.77049 -2.35809
-6.64281 -1.67349 -2.40252
-6.3645 -1.60338 -2.4721
-6.01831 -1.51616 -2.50155
-5.666 -1.42741 -2.51068
-5.34473 -1.34647 -2.51811
-5.07094 -1.2775 -2.53587
-4.82552 -1.21567 -2.55514
-4.58375 -1.15476 -2.5651
-4.35713 -1.09767 -2.57392
-40.5183 -10.0723 7.95718
-39.6421 -9.8545 3.90179
-29.6974 -7.38239 2.23065
-29.2626 -7.2743 1.49697
-28.2872 -7.03183 0.767539
-27.6011 -6.86125 -1.23552
-10.7827 -2.68044 -0.686143
-10.7642 -2.67584 -0.944011
-10.7918 -2.68269 -1.20962
-10.8192 -2.6895 -1.47601
-10.9169 -2.7138 -1.75737
-10.8491 -2.69695 -2.01548
-10.6146 -2.63865 -2.23406
-9.67549 -2.4052 -2.2715
-8.83249 -2.19564 -2.29178
-8.11784 -2.01798 -2.30779
-7.4891 -1.86169 -2.31721
-7.04074 -1.75023 -2.36065
-6.64073 -1.6508 -2.39979
-6.33515 -1.57483 -2.45828
-6.02483 -1.49769 -2.50232
-5.66691 -1.40872 -2.50906
-5.3735 -1.33578 -2.53009
-5.07667 -1.26199 -2.53677
-4.83103 -1.20093 -2.55608
-4.58397 -1.13951 -2.56314
-4.37224 -1.08688 -2.58106
-40.5634 -9.96333 7.96051
-29.7083 -7.29705 2.22996
-29.8106 -7.32218 1.52231
-28.3941 -6.97427 0.769628
-30.008 -7.37068 0.090805
-38.0679 -9.35038 -0.81929
-27.6104 -6.78177 -1.23505
-10.7417 -2.63842 -0.682655
-10.7794 -2.64767 -0.944754
-10.7799 -2.64781 -1.2073
-10.7785 -2.64746 -1.46905
-10.9417 -2.68755 -1.76029
-10.8394 -2.66242 -2.01215
-10.639 -2.61319 -2.23781
-9.70862 -2.38467 -2.27796
-8.81792 -2.16589 -2.28621
-8.12344 -1.99531 -2.30779
-7.51652 -1.84623 -2.32436
-7.0456 -1.73056 -2.36065
-6.64167 -1.63135 -2.39842
-6.31962 -1.55225 -2.45028
-6.02541 -1.47998 -2.50078
-5.66905 -1.39245 -2.50824
-5.3579 -1.31603 -2.52068
-5.07496 -1.24653 -2.53408
-4.83093 -1.18659 -2.5542
-4.58375 -1.12588 -2.56118
-4.3669 -1.07262 -2.57596
-40.6996 -9.8613 7.98088
-29.6515 -7.18442 2.22424
-29.5169 -7.1518 1.50713
-28.7171 -6.95801 0.776823
-29.9961 -7.2679 0.090805
-38.0019 -9.20767 -0.817016
-27.5364 -6.67194 -1.23049
-10.6995 -2.59244 -0.679027
-10.718 -2.59692 -0.938066
-10.738 -2.60176 -1.20125
-10.8118 -2.61965 -1.47267
-11.2973 -2.73727 -1.81898
-10.8229 -2.62234 -2.00734
-10.6168 -2.57239 -2.23115
-9.71039 -2.35278 -2.27658
-8.81716 -2.13635 -2.28419
-8.15022 -1.97476 -2.31386
-7.54455 -1.82801 -2.33151
-7.03074 -1.70351 -2.35361
-6.66502 -1.6149 -2.40526
-6.30636 -1.528 -2.443
-6.03003 -1.46104 -2.50078
-5.66985 -1.37377 -2.50662
-5.35146 -1.29663 -2.51554
-5.08233 -1.23142 -2.53587
-4.83807 -1.17224 -2.55608
-4.59404 -1.11311 -2.5651
-4.36691 -1.05808 -2.57392
-40.8548 -9.77067 8.00532
-29.6048 -7.08017 2.21935
-29.3767 -7.02562 1.4994
-28.4518 -6.80441 0.769999
-30.0331 -7.18259 0.090805
-37.9338 -9.07208 -0.814741
-27.63 -6.60787 -1.23403
-10.6548 -2.54815 -0.675261
-10.7237 -2.56464 -0.93788
-10.7186 -2.56343 -1.198
-16.1494 -3.86223 -2.24285
-11.1518 -2.66702 -1.79303
-10.7714 -2.57604 -1.99586
-10.6776 -2.55362 -2.2428
-9.67569 -2.314 -2.26643
-8.81969 -2.10928 -2.28317
-8.16352 -1.95236 -2.31606
-7.57222 -1.81094 -2.33866
-7.03577 -1.68265 -2.35361
-6.66248 -1.59337 -2.40252
-6.29818 -1.50625 -2.43791
-6.03613 -1.44358 -2.50155
-5.67745 -1.3578 -2.50824
-5.36056 -1.28201 -2.51811
-5.07901 -1.21467 -2.53228
-4.84153 -1.15788 -2.55608
-4.60072 -1.10029 -2.56706
-4.37003 -1.04512 -2.57392
-38.7543 -9.1397 7.5928
-29.7603 -7.0186 1.51672
-29.3682 -6.92612 0.791353
-29.6136 -6.98399 0.090805
-37.8589 -8.92854 -0.812281
-27.287 -6.43528 -1.21661
-10.6666 -2.51559 -0.67554
-10.7085 -2.52545 -0.935651
-10.6822 -2.51925 -1.19266
-16.1402 -3.80647 -2.23979
-11.0622 -2.60887 -1.7765
-10.766 -2.53903 -1.99327
-10.6475 -2.51108 -2.23448
-9.67913 -2.2827 -2.26551
-8.83946 -2.08467 -2.28672
-8.17523 -1.92802 -2.31771
-7.59088 -1.79021 -2.34283
-7.02811 -1.65749 -2.34913
-6.66928 -1.57286 -2.40321
-6.28113 -1.48132 -2.42918
-6.03525 -1.42334 -2.49924
-5.67635 -1.33869 -2.5058
-5.36104 -1.26433 -2.5164
-5.08454 -1.19912 -2.53318
-4.84514 -1.14266 -2.55608
-4.59736 -1.08423 -2.56314
-4.37664 -1.03217 -2.57596
-39.044 -9.093 4.77888
-39.1381 -9.11492 3.83992
-29.7779 -6.93501 1.51663
-28.6922 -6.68217 0.774781
-40.4749 -9.42624 0.090805
-29.995 -6.98557 -0.624227
-27.3087 -6.35996 -1.21679
-10.6891 -2.48941 -0.676656
-10.7077 -2.49373 -0.934908
-10.7298 -2.49887 -1.19754
-10.7228 -2.49726 -1.45652
-10.8041 -2.51619 -1.73175
-10.6946 -2.49068 -1.97809
-10.6392 -2.47778 -2.23115
-9.70063 -2.25919 -2.2692
-8.81321 -2.05252 -2.27811
-8.17309 -1.90344 -2.31551
-7.57911 -1.76511 -2.33747
-7.03456 -1.63829 -2.34977
-6.66998 -1.55338 -2.40184
-6.26165 -1.45828 -2.41972
-6.0392 -1.40648 -2.49924
-5.69075 -1.32533 -2.51068
-5.36807 -1.25018 -2.51811
-5.11572 -1.19141 -2.54754
-4.84831 -1.12913 -2.55608
-4.60207 -1.07178 -2.56412
-4.37615 -1.01917 -2.57392
-41.3118 -9.49202 8.07715
-39.035 -8.96888 3.82748
-39.1537 -8.99616 2.90004
-29.4771 -6.77281 1.50126
-28.8581 -6.63059 0.778262
-37.6993 -8.66199 -0.807267
-27.3606 -6.28651 -1.21838
-10.6382 -2.44428 -0.67247
-10.6627 -2.44991 -0.929892
-10.6965 -2.45769 -1.19266
-10.7341 -2.46632 -1.45708
-10.7308 -2.46556 -1.71814
-10.7288 -2.4651 -1.98327
-10.616 -2.4392 -2.2245
-9.67314 -2.22255 -2.2609
-8.80418 -2.0229 -2.27406
-8.16371 -1.87574 -2.3111
-7.57874 -1.74133 -2.33568
-7.04123 -1.61783 -2.35041
-6.67456 -1.53358 -2.40184
-6.25506 -1.4372 -2.41536
-6.03975 -1.38773 -2.4977
-5.69287 -1.30802 -2.50987
-5.37 -1.23384 -2.51725
-5.10007 -1.17182 -2.53767
-4.84992 -1.11434 -2.55514
-4.60353 -1.05773 -2.56314
-4.38084 -1.00656 -2.57494
-41.4569 -9.40357 8.10011
-38.9297 -8.83033 3.81503
-29.2361 -6.63155 2.18713
-29.1393 -6.60959 1.48421
-29.7325 -6.74414 0.798641
-29.83 -6.76626 -0.619352
-27.1793 -6.16501 -1.20887
-10.534 -2.38941 -0.664518
-10.5316 -2.38885 -0.916701
-10.5387 -2.39045 -1.17291
-10.6134 -2.40742 -1.43871
-10.6241 -2.40983 -1.69901
-10.7394 -2.436 -1.98401
-10.6152 -2.40781 -2.22284
-9.65844 -2.1908 -2.25583
-8.82678 -2.00215 -2.27861
-8.16705 -1.85251 -2.31055
-7.57426 -1.71805 -2.3327
-7.05681 -1.60068 -2.35425
-6.67332 -1.51369 -2.39979
-6.23724 -1.41478 -2.40663
-6.0472 -1.37167 -2.49924
-5.69116 -1.29091 -2.50743
-5.37519 -1.21924 -2.51811
-5.10158 -1.15718 -2.53677
-4.84957 -1.10001 -2.55326
-4.60817 -1.04526 -2.56412
-4.38027 -0.993566 -2.5729
-38.5474 -8.60929 7.53244
-38.8344 -8.67341 3.80314
-29.1879 -6.51891 2.1821
-29.6875 -6.63051 1.50936
-28.4922 -6.36353 0.768607
-37.5856 -8.39449 -0.803321
-27.0514 -6.04175 -1.20179
-10.5068 -2.34663 -0.662007
-10.5356 -2.35304 -0.916329
-18.2412 -4.07405 -2.09492
-10.631 -2.37437 -1.4401
-10.6282 -2.37373 -1.69836
-10.7033 -2.39052 -1.97549
-10.5467 -2.35554 -2.2062
-9.67895 -2.16173 -2.25906
-8.85791 -1.97836 -2.2852
-8.17127 -1.825 -2.31
-7.56314 -1.68918 -2.32734
-7.05468 -1.57562 -2.35169
-6.65629 -1.48664 -2.39158
-6.22917 -1.39124 -2.40153
-6.04811 -1.35081 -2.4977
-5.68649 -1.27004 -2.50336
-5.38449 -1.20259 -2.52068
-5.10364 -1.13986 -2.53587
-4.85664 -1.0847 -2.55514
-4.6065 -1.02883 -2.56118
-4.37851 -0.97791 -2.56984
-41.7401 -9.20007 8.14381
-38.7437 -8.53962 4.73033
-38.7243 -8.53535 3.79032
-38.8679 -8.56699 2.87395
-29.5498 -6.51317 1.50191
-29.2245 -6.44146 0.785597
-37.5425 -8.27487 -0.801743
-26.9726 -5.94511 -1.19723
-10.4257 -2.29796 -0.655729
-10.5589 -2.32732 -1.17361
-10.744 -2.36812 -1.45541
-10.5788 -2.33172 -1.68895
-10.7157 -2.36189 -1.9766
-10.5666 -2.32903 -2.20911
-9.67354 -2.13218 -2.25629
-8.8823 -1.95778 -2.29027
-8.18009 -1.803 -2.3111
-7.56783 -1.66805 -2.32734
-7.05351 -1.55469 -2.34977
-6.64023 -1.46359 -2.38405
-6.21666 -1.37023 -2.39499
-6.04826 -1.33312 -2.49615
-5.69537 -1.25534 -2.5058
-5.37018 -1.18366 -2.51212
-5.11379 -1.12715 -2.53946
-4.8562 -1.07037 -2.55326
-4.61617 -1.01747 -2.5651
-4.38794 -0.96716 -2.57392
-41.8591 -9.08849 8.16122
-42.0219 -9.12384 5.11943
-38.6731 -8.39675 3.78289
-38.7737 -8.4186 2.8653
-29.3691 -6.37665 1.49231
-29.5806 -6.42258 0.793581
-37.5058 -8.14331 -0.800257
-27.0223 -5.86713 -1.19872
-24.7749 -5.37915 -1.68199
-10.4793 -2.27527 -0.909641
-10.572 -2.2954 -1.17431
-10.6353 -2.30914 -1.43871
-10.6941 -2.32192 -1.70711
-10.5983 -2.30111 -1.95253
-10.5663 -2.29416 -2.20745
-9.66688 -2.09889 -2.25306
-8.90164 -1.93274 -2.29381
-8.18571 -1.77729 -2.3111
-7.5693 -1.64346 -2.32615
-7.05095 -1.53091 -2.34721
-6.63929 -1.44153 -2.382
-6.20819 -1.34793 -2.3899
-6.05061 -1.31372 -2.49538
-5.70285 -1.23821 -2.50743
-5.388 -1.16985 -2.51897
-5.11381 -1.11032 -2.53767
-4.85954 -1.05511 -2.55326
-4.62105 -1.00333 -2.56608
-4.39096 -0.95337 -2.57392
-42.0588 -9.00127 8.19454
-42.1847 -9.02823 5.1357
-38.581 -8.25696 3.77174
-38.6463 -8.27095 2.85442
-29.5109 -6.31582 1.49818
-29.6015 -6.33521 0.793628
-37.4614 -8.01734 -0.798633
-26.8286 -5.74177 -1.18866
-10.4668 -2.24008 -0.657682
-10.523 -2.25209 -0.913171
-10.5166 -2.25072 -1.16688
-10.5549 -2.25892 -1.42618
-10.618 -2.27242 -1.69317
-10.5954 -2.26759 -1.95068
-10.5195 -2.25134 -2.19581
-9.66165 -2.06775 -2.25029
-8.89409 -1.90348 -2.29027
-8.20411 -1.75581 -2.31496
-7.56855 -1.61979 -2.32436
-7.06472 -1.51197 -2.35041
-6.65272 -1.42379 -2.38542
-6.20305 -1.32756 -2.38626
-6.07253 -1.29962 -2.50309
-5.70829 -1.22167 -2.50824
-5.38968 -1.15348 -2.51811
-5.11009 -1.09364 -2.53408
-4.86092 -1.04032 -2.55232
-4.61377 -0.987423 -2.5602
-4.3904 -0.939618 -2.57188
-42.2084 -8.9024 8.21824
-42.3085 -8.92352 5.14731
-38.4592 -8.11163 3.75781
-38.5419 -8.12907 2.84521
-29.2656 -6.17257 1.48561
-29.7767 -6.28036 0.797342
-26.7967 -5.65183 -1.18633
-10.452 -2.20448 -0.656147
-10.4906 -2.21264 -0.909455
-10.496 -2.21376 -1.16362
-16.1795 -3.41251 -2.23311
-12.9284 -2.7268 -2.07999
-10.6117 -2.23818 -1.95253
-10.4993 -2.21446 -2.18999
-9.68107 -2.04189 -2.25352
-8.89024 -1.87509 -2.28773
-8.24314 -1.7386 -2.32488
-7.57705 -1.59812 -2.32556
-7.0803 -1.49334 -2.35425
-6.67163 -1.40715 -2.39089
-6.20514 -1.30876 -2.38553
-6.06372 -1.27893 -2.4977
-5.7101 -1.20435 -2.50743
-5.39131 -1.13711 -2.51725
-5.11157 -1.07811 -2.53318
-4.86226 -1.02552 -2.55138
-4.62521 -0.975528 -2.5651
-4.39654 -0.927297 -2.57392
-42.492 -8.82287 5.16589
-38.4221 -7.97781 3.75186
-38.4324 -7.97996 2.83558
-29.1597 -6.05461 1.47964
-29.7787 -6.18313 0.796924
-26.738 -5.55178 -1.18269
-10.4237 -2.16433 -0.653636
-10.4507 -2.16995 -0.904997
-10.4543 -2.17068 -1.15782
-16.1669 -3.35683 -2.22977
-11.7466 -2.43902 -1.88026
-10.6052 -2.20203 -1.94994
-10.4526 -2.17033 -2.17834
-9.66266 -2.00632 -2.24753
-8.88471 -1.84479 -2.28469
-8.25798 -1.71465 -2.32764
-7.58017 -1.57392 -2.32496
-7.07568 -1.46917 -2.35105
-6.67602 -1.38618 -2.39089
-6.21469 -1.29039 -2.38771
-6.05144 -1.2565 -2.49076
-5.70849 -1.18529 -2.50499
-5.3807 -1.11723 -2.51041
-5.12368 -1.06386 -2.53767
-4.86891 -1.01096 -2.55326
-4.62313 -0.959929 -2.56216
-4.39438 -0.912431 -2.57086
-42.6239 -8.73392 5.1789
-38.3316 -7.85441 3.74127
-38.3555 -7.85929 2.82861
-30.7901 -6.3091 1.55651
-29.8633 -6.11919 0.798549
-26.7427 -5.47976 -1.18223
-10.3922 -2.12943 -0.650985
-10.4096 -2.13299 -0.900538
-10.4346 -2.13812 -1.1548
-10.6344 -2.17905 -1.43481
-11.5113 -2.35874 -1.83973
-10.5994 -2.17189 -1.94772
-10.4755 -2.14649 -2.18209
-9.69839 -1.98727 -2.2549
-8.86867 -1.81725 -2.27912
-8.26244 -1.69303 -2.32764
-7.58613 -1.55445 -2.32556
-7.07951 -1.45064 -2.35105
-6.67042 -1.36681 -2.38747
-6.2071 -1.27188 -2.38335
-6.05652 -1.24102 -2.49153
-5.71336 -1.17071 -2.5058
-5.39246 -1.10495 -2.51469
-5.11944 -1.04901 -2.53408
-4.86462 -0.996794 -2.5495
-4.6188 -0.946423 -2.55824
-4.39338 -0.900233 -2.56882
-37.8836 -7.63868 7.3721
-42.7933 -8.62863 5.19586
-38.2605 -7.71467 3.73217
-38.2274 -7.708 2.81772
-30.7647 -6.20326 1.55436
-29.8647 -6.02179 0.798131
-26.5678 -5.35702 -1.1731
-10.3538 -2.0877 -0.647777
-10.4471 -2.10651 -1.15549
-10.4625 -2.10962 -1.4092
-11.7121 -2.36158 -1.87215
-10.4906 -2.11527 -1.9255
-10.4572 -2.10854 -2.17668
-9.69504 -1.95486 -2.2526
-8.86674 -1.78785 -2.2771
-8.2696 -1.66744 -2.32819
-7.60221 -1.53287 -2.32913
-7.07288 -1.42614 -2.34721
-6.66915 -1.34474 -2.38542
-6.21472 -1.25311 -2.3848
-6.06039 -1.22199 -2.49153
-5.70985 -1.15131 -2.50255
-5.39236 -1.08729 -2.51297
-5.12271 -1.03292 -2.53408
-4.86773 -0.981507 -2.5495
-4.62346 -0.932252 -2.55922
-4.39787 -0.886767 -2.56984
-38.0422 -7.55327 5.54166
-38.1054 -7.56581 4.63392
-38.1543 -7.57552 3.71991
-38.1562 -7.57589 2.81103
-29.9707 -5.95067 0.80022
-26.5033 -5.26221 -1.16928
-10.3424 -2.05347 -0.646521
-10.3833 -2.06161 -0.896822
-10.4105 -2.06699 -1.15038
-12.8271 -2.54681 -1.74711
-10.6641 -2.11735 -1.69544
-10.5932 -2.10327 -1.94402
-10.4289 -2.07065 -2.1692
-9.71225 -1.92836 -2.25537
-8.85683 -1.75852 -2.27304
-8.28017 -1.64402 -2.32984
-7.61983 -1.51291 -2.3333
-7.06222 -1.4022 -2.34208
-6.68602 -1.3275 -2.39021
-6.22755 -1.23648 -2.38844
-6.06037 -1.20328 -2.48999
-5.7222 -1.13614 -2.50662
-5.40265 -1.07269 -2.5164
-5.12225 -1.01702 -2.53228
-4.87928 -0.968779 -2.5542
-4.62449 -0.918191 -2.55824
-4.39711 -0.873044 -2.5678
-37.7232 -7.36681 7.33247
-38.0606 -7.43271 3.70876
-38.0799 -7.43648 2.80391
-26.4981 -5.17471 -1.16825
-10.3116 -2.0137 -0.64387
-10.3683 -2.02478 -0.894778
-10.3623 -2.02361 -1.14388
-16.1803 -3.15979 -2.22615
-10.6358 -2.07703 -1.6896
-10.565 -2.0632 -1.93735
-10.4277 -2.03638 -2.16753
-9.72017 -1.89821 -2.25583
-8.8775 -1.73365 -2.2771
-8.28341 -1.61763 -2.32929
-7.6208 -1.48824 -2.33211
-7.07588 -1.38182 -2.34529
-6.68831 -1.30613 -2.38952
-6.27163 -1.22476 -2.40444
-6.06593 -1.18459 -2.49076
-5.72395 -1.11781 -2.5058
-5.40067 -1.05468 -2.51383
-5.12717 -1.00127 -2.53318
-4.87017 -0.951076 -2.54763
-4.62735 -0.903658 -2.55824
-4.40489 -0.860215 -2.57086
-37.6889 -7.23728 6.396
-37.9586 -7.28907 3.69687
-38.011 -7.29913 2.79736
-26.3926 -5.06808 -1.16248
-10.2689 -1.97189 -0.640382
-10.3296 -1.98356 -0.890505
-10.3042 -1.97869 -1.13621
-10.9173 -2.09641 -1.47155
-11.1307 -2.13739 -1.77131
-10.5464 -2.02518 -1.93254
-10.3917 -1.99549 -2.15838
-9.7108 -1.86473 -2.25214
-8.881 -1.70539 -2.27659
-8.30733 -1.59523 -2.3348
-7.61606 -1.46249 -2.32913
-7.07647 -1.35887 -2.34401
-6.685 -1.2837 -2.38679
-6.30472 -1.21067 -2.41608
-6.06056 -1.16379 -2.4869
-5.72923 -1.10017 -2.50662
-5.40751 -1.03839 -2.51554
-5.12678 -0.984479 -2.53138
-4.8766 -0.936437 -2.5495
-4.62503 -0.88813 -2.55531
-4.39913 -0.84475 -2.56576
-37.548 -7.10155 7.29063
-37.8888 -7.16602 3.68832
-37.9293 -7.17367 2.7901
-26.332 -4.98025 -1.15894
-10.2743 -1.94321 -0.640382
-10.2881 -1.94582 -0.886047
-18.2518 -3.45202 -2.08144
-10.3704 -1.96139 -1.3925
-10.9737 -2.07549 -1.74408
-10.6061 -2.00595 -1.94291
-10.3761 -1.96247 -2.15381
-9.69685 -1.83399 -2.24753
-8.89523 -1.68238 -2.27912
-8.30986 -1.57167 -2.33425
-7.63513 -1.44405 -2.3339
-7.09513 -1.34192 -2.34913
-6.6904 -1.26537 -2.38747
-6.31539 -1.19445 -2.41899
-6.06016 -1.14617 -2.48536
-5.73407 -1.0845 -2.50743
-5.40861 -1.02295 -2.51469
-5.13302 -0.970823 -2.53318
-4.8792 -0.922816 -2.5495
-4.63092 -0.875859 -2.55727
-4.40485 -0.833102 -2.5678
-37.4291 -6.95734 7.2636
-37.5061 -6.97166 6.35838
-37.7111 -7.00976 5.48154
-37.7888 -7.02421 4.58561
-37.7859 -7.02366 3.67643
-37.8673 -7.0388 2.7841
-26.3044 -4.88947 -1.15689
-24.6741 -4.58643 -1.66413
-20.7489 -3.85683 -1.87813
-10.3138 -1.91715 -1.13598
-16.2512 -3.02078 -2.23227
-10.3205 -1.91838 -1.63383
-10.5002 -1.95179 -1.92143
-10.3399 -1.92199 -2.14466
-9.70639 -1.80423 -2.24845
-8.92711 -1.65938 -2.28621
-8.31287 -1.5452 -2.3337
-7.63587 -1.41936 -2.3327
-7.10862 -1.32136 -2.35233
-6.6925 -1.24401 -2.38679
-6.31179 -1.17324 -2.41608
-6.03833 -1.12241 -2.47457
-5.75002 -1.06882 -2.51312
-5.41002 -1.00562 -2.51383
-5.12902 -0.953386 -2.52959
-4.88033 -0.90716 -2.54856
-4.63708 -0.861943 -2.55922
-4.41083 -0.819888 -2.56984
-37.3703 -6.83176 7.24841
-37.4296 -6.8426 6.34217
-37.6714 -6.88681 3.66362
-37.8292 -6.91565 2.77992
-37.9354 -6.93507 1.88921
-38.0077 -6.94829 0.987856
-38.014 -6.94944 0.090805
-26.2794 -4.80422 -1.15502
-24.7111 -4.51751 -1.6658
-10.2665 -1.87685 -0.882888
-10.2941 -1.88189 -1.13296
-10.2575 -1.87521 -1.37469
-10.363 -1.89449 -1.63999
-10.4228 -1.90543 -1.90551
-10.3417 -1.8906 -2.14383
-9.70404 -1.77402 -2.24661
-8.93961 -1.63427 -2.28824
-8.32876 -1.5226 -2.33701
-7.64005 -1.3967 -2.3327
-7.10692 -1.29924 -2.35041
-6.68137 -1.22144 -2.38132
-6.30425 -1.1525 -2.41172
-6.03618 -1.10349 -2.47226
-5.74598 -1.05044 -2.50987
-5.41298 -0.989562 -2.51383
-5.13007 -0.937842 -2.52869
-4.88301 -0.892676 -2.54856
-4.64476 -0.849122 -2.56216
-4.40986 -0.806179 -2.5678
-37.2801 -6.70103 7.22731
-37.6034 -6.75915 3.65525
-37.714 -6.77903 2.77029
-37.9479 -6.82107 1.88883
-37.9947 -6.82948 0.987067
-38.1014 -6.84865 0.090805
-26.3034 -4.72799 -1.15549
-10.1992 -1.83329 -0.633825
-10.2446 -1.84145 -0.880287
-10.2351 -1.83974 -1.12529
-10.3254 -1.85598 -1.38359
-12.8937 -2.31763 -2.06151
-10.5484 -1.89605 -1.92846
-10.3377 -1.85818 -2.14175
-9.70735 -1.74488 -2.24614
-8.9368 -1.60637 -2.28621
-8.32189 -1.49585 -2.3337
-7.65355 -1.37571 -2.33568
-7.10515 -1.27714 -2.34849
-6.68126 -1.20094 -2.37995
-6.30581 -1.13346 -2.41099
-6.02308 -1.08264 -2.46532
-5.75267 -1.03403 -2.5115
-5.40878 -0.972218 -2.51041
-5.14162 -0.924197 -2.53318
-4.88216 -0.877559 -2.54669
-4.64211 -0.834411 -2.55922
-4.41392 -0.793395 -2.56882
-37.1558 -6.55826 7.19953
-37.5166 -6.62195 3.64504
-37.6251 -6.64109 2.76248
-41.4082 -7.30884 2.05169
-26.5523 -4.68666 0.7168
-38.2763 -6.75604 0.090805
-26.1489 -4.61547 -1.14748
-10.1814 -1.79708 -0.632151
-10.2072 -1.80164 -0.8762
-10.2056 -1.80136 -1.12111
-10.3058 -1.81905 -1.37998
-12.9476 -2.28534 -2.06929
-10.3878 -1.83353 -1.89662
-10.3261 -1.82263 -2.13801
-9.74728 -1.72046 -2.25444
-8.95895 -1.58132 -2.29077
-8.30004 -1.46501 -2.32598
-7.65032 -1.35033 -2.3333
-7.08301 -1.2502 -2.33952
-6.69241 -1.18126 -2.38268
-6.313 -1.11429 -2.41245
-6.01373 -1.06147 -2.45992
-5.74869 -1.01468 -2.50824
-5.41893 -0.956478 -2.51383
-5.14274 -0.907729 -2.53228
-4.88837 -0.862831 -2.54856
-4.64128 -0.819218 -2.55727
-4.40792 -0.778029 -2.56372
-37.4585 -6.50387 3.63779
-37.4843 -6.50835 2.75118
-25.9349 -4.50304 0.701945
-26.9468 -4.67875 0.090805
-25.9944 -4.51338 -1.13956
-10.1234 -1.75772 -0.627687
-10.1612 -1.76428 -0.87137
-18.1724 -3.15526 -2.06611
-12.955 -2.24935 -1.75713
-10.257 -1.78091 -1.61957
-10.5265 -1.82771 -1.92217
-10.3215 -1.79212 -2.13593
-9.78272 -1.69856 -2.26182
-8.96142 -1.55596 -2.29027
-8.29842 -1.44084 -2.32433
-7.66723 -1.33125 -2.33747
-7.0958 -1.23204 -2.34272
-6.69383 -1.16224 -2.382
-6.31426 -1.09634 -2.41172
-5.99486 -1.04088 -2.45067
-5.7461 -0.997689 -2.5058
-5.41623 -0.940414 -2.51126
-5.14173 -0.892753 -2.53049
-4.8925 -0.849479 -2.5495
-4.64183 -0.805955 -2.55628
-4.41855 -0.767188 -2.56882
-37.3413 -6.36274 3.62479
-37.4691 -6.38453 2.74867
-37.5159 -6.3925 1.86554
-25.9942 -4.42927 0.703013
-27.0442 -4.60818 0.090805
-25.9573 -4.42297 -1.13713
-24.6438 -4.19916 -1.65729
-10.1569 -1.73067 -0.870441
-10.2083 -1.73944 -1.12018
-10.2384 -1.74456 -1.36884
-10.2275 -1.74271 -1.61373
-10.3753 -1.76789 -1.89217
-10.2693 -1.74982 -2.12345
-9.75923 -1.66292 -2.2549
-8.95864 -1.5265 -2.28824
-8.30101 -1.41444 -2.32378
-7.67702 -1.30812 -2.33926
-7.0959 -1.2091 -2.34144
-6.69374 -1.14057 -2.38063
-6.30849 -1.07493 -2.40808
-5.9799 -1.01894 -2.44297
-5.75641 -0.98086 -2.50906
-5.42807 -0.924912 -2.51554
-5.14099 -0.875995 -2.52869
-4.88992 -0.833214 -2.54669
-4.64949 -0.792247 -2.55922
-4.41755 -0.752725 -2.56678
-37.3031 -6.24239 3.6194
-37.3856 -6.2562 2.74141
-26.9814 -4.51515 0.725945
-27.115 -4.53749 0.090805
-25.986 -4.34857 -1.13788
-10.071 -1.68531 -0.623222
-10.158 -1.69987 -0.870069
-10.1644 -1.70094 -1.11437
-10.2494 -1.71515 -1.36968
-13.7635 -2.30322 -2.2019
-10.3708 -1.73548 -1.89032
-10.2532 -1.71579 -2.11888
-9.76988 -1.63492 -2.25629
-8.97839 -1.50247 -2.29229
-8.30517 -1.38981 -2.32378
-7.69969 -1.28849 -2.34522
-7.10694 -1.18929 -2.34401
-6.69895 -1.12102 -2.38132
-6.31165 -1.05621 -2.40808
-5.97016 -0.999062 -2.43757
-5.7557 -0.963173 -2.50743
-5.42188 -0.907311 -2.51126
-5.14533 -0.861033 -2.52959
-4.89411 -0.818994 -2.54763
-4.64323 -0.777009 -2.55433
-4.41976 -0.739615 -2.56678
-36.9253 -6.0666 6.23874
-37.0444 -6.08618 5.36686
-37.1279 -6.09988 4.49083
-37.2133 -6.11393 3.60918
-37.3036 -6.12875 2.7343
-26.9138 -4.42178 0.724042
-27.0888 -4.45053 0.090805
-25.9811 -4.26853 -1.13704
-10.0957 -1.65866 -0.624617
-10.1218 -1.66294 -0.866168
-10.14 -1.66595 -1.11089
-10.2231 -1.6796 -1.36522
-13.595 -2.23358 -2.17272
-10.4554 -1.71776 -1.90551
-10.2351 -1.68156 -2.11389
-9.78813 -1.60813 -2.25952
-8.97899 -1.47519 -2.29128
-8.30167 -1.36391 -2.32157
-7.71102 -1.26687 -2.3476
-7.10856 -1.16789 -2.34336
-6.70039 -1.10083 -2.38063
-6.30372 -1.03566 -2.40372
-5.96217 -0.979549 -2.43295
-5.75312 -0.945203 -2.50499
-5.42633 -0.891513 -2.51212
-5.14433 -0.845183 -2.52779
-4.89652 -0.804469 -2.54763
-4.65067 -0.764077 -2.55727
-4.41176 -0.724825 -2.56066
-36.8193 -5.94365 6.21831
-37.0378 -5.97892 5.36352
-37.1487 -5.99681 4.49129
-37.1221 -5.99253 3.59896
-37.2319 -6.01025 2.72802
-26.3951 -4.26089 0.711554
-27.0794 -4.37136 0.090805
-25.7838 -4.16222 -1.12716
-10.0412 -1.62092 -0.620432
-10.0635 -1.62452 -0.860223
-18.1674 -2.93272 -2.06123
-10.1769 -1.64284 -1.35799
-12.0854 -1.95092 -1.92046
-10.7726 -1.73899 -1.96512
-10.2474 -1.65422 -2.11555
-9.76185 -1.57583 -2.25214
-8.98499 -1.45042 -2.29178
-8.30734 -1.34103 -2.32212
-7.72018 -1.24625 -2.34938
-7.11741 -1.14894 -2.34529
-6.68303 -1.07882 -2.37311
-6.29923 -1.01687 -2.40081
-5.94666 -0.959954 -2.42524
-5.76115 -0.930007 -2.50743
-5.42344 -0.875492 -2.50955
-5.1502 -0.831384 -2.52959
-4.89701 -0.790511 -2.54669
-4.65107 -0.750809 -2.55628
-4.42056 -0.713599 -2.56474
-36.754 -5.81469 6.20437
-37.0149 -5.85596 3.58707
-37.1383 -5.87548 2.72007
-26.7283 -4.22856 0.719075
-27.0002 -4.27158 0.090805
-25.7652 -4.0762 -1.12567
-24.5992 -3.89174 -1.65074
-10.1105 -1.59954 -1.10624
-10.4207 -1.64861 -1.39194
-13.3546 -2.11278 -2.13057
-10.6498 -1.68486 -1.94068
-10.2275 -1.61804 -2.11015
-9.80904 -1.55184 -2.26228
-8.96657 -1.41856 -2.28571
-8.31721 -1.31583 -2.32378
-7.71463 -1.2205 -2.34641
-7.12847 -1.12776 -2.34785
-6.68639 -1.05782 -2.37311
-6.30424 -0.997365 -2.40153
-5.93689 -0.939249 -2.41984
-5.76945 -0.91276 -2.50987
-5.42795 -0.858732 -2.51041
-5.15279 -0.8152 -2.52959
-4.90121 -0.775398 -2.54763
-4.65512 -0.736466 -2.55727
-4.41768 -0.698901 -2.56168
-36.6032 -5.68611 7.06993
-36.6726 -5.69688 6.18816
-36.9347 -5.7376 3.57797
-37.052 -5.75582 2.71281
-26.9316 -4.18368 0.723578
-26.9646 -4.1888 0.090805
-25.7449 -3.99933 -1.12418
-9.95007 -1.54569 -0.613317
-10.067 -1.56385 -0.859665
-10.1503 -1.57679 -1.11043
-10.1043 -1.56965 -1.3463
-13.8948 -2.15848 -2.21941
-10.5321 -1.63611 -1.91735
-10.1314 -1.57386 -2.08853
-9.79987 -1.52235 -2.25906
-8.98005 -1.395 -2.28824
-8.33035 -1.29407 -2.32653
-7.70669 -1.19719 -2.34283
-7.11848 -1.10582 -2.34336
-6.69674 -1.0403 -2.37584
-6.29411 -0.977755 -2.39644
-5.92673 -0.920683 -2.41444
-5.75573 -0.894121 -2.50255
-5.43212 -0.843849 -2.51126
-5.14975 -0.799984 -2.5269
-4.89637 -0.760624 -2.54387
-4.65027 -0.722393 -2.55335
-4.42301 -0.68709 -2.56372
-36.5014 -5.54639 7.04697
-36.6035 -5.5619 6.17357
-36.7058 -5.57744 5.30868
-36.8433 -5.59833 3.56756
-36.9782 -5.61884 2.70625
-27.1173 -4.12048 0.727616
-26.9032 -4.08794 0.090805
-37.0526 -5.63014 -0.779321
-25.6454 -3.89682 -1.11887
-10.0045 -1.52018 -0.616805
-10.0406 -1.52568 -0.856693
-10.0317 -1.52432 -1.09579
-10.084 -1.53226 -1.34268
-13.5995 -2.06644 -2.16915
-10.4481 -1.58759 -1.90032
-10.1366 -1.54025 -2.08853
-9.83757 -1.49482 -2.26689
-9.01524 -1.36987 -2.29634
-8.3384 -1.26702 -2.32764
-7.71628 -1.17249 -2.34462
-7.12024 -1.08192 -2.34272
-6.70387 -1.01865 -2.37721
-6.29179 -0.956038 -2.39426
-5.92427 -0.900193 -2.41213
-5.77312 -0.877225 -2.50906
-5.43667 -0.826102 -2.51212
-5.15591 -0.78344 -2.52869
-4.90062 -0.744648 -2.54481
-4.65781 -0.707754 -2.55628
-4.42697 -0.672677 -2.56474
-36.4439 -5.42706 7.0329
-36.5418 -5.44164 6.1606
-36.7987 -5.4799 4.44158
-36.7967 -5.47961 3.56162
-36.8842 -5.49264 2.69844
-26.9099 -4.00731 0.722464
-26.8242 -3.99455 0.090805
-37.0236 -5.5134 -0.778254
-25.7715 -3.83778 -1.12428
-9.96156 -1.48343 -0.613456
-9.97331 -1.48518 -1.08836
-10.0493 -1.4965 -1.33711
-10.0744 -1.50023 -1.5826
-10.7036 -1.59393 -1.94809
-10.1527 -1.5119 -2.09102
-9.86121 -1.46849 -2.2715
-9.0116 -1.34197 -2.29432
-8.33071 -1.24057 -2.32433
-7.71595 -1.14903 -2.34343
-7.10468 -1.058 -2.33632
-6.70501 -0.998481 -2.37653
-6.28355 -0.935719 -2.3899
-5.91962 -0.881524 -2.40905
-5.77389 -0.859823 -2.50824
-5.44089 -0.810234 -2.51297
-5.15644 -0.767875 -2.52779
-4.89931 -0.729585 -2.54293
-4.65817 -0.693674 -2.55531
-4.42724 -0.659286 -2.56372
-36.3626 -5.30472 7.01438
-36.4601 -5.31895 6.14438
-42.7137 -6.23126 5.13871
-36.7123 -5.35574 3.55214
-36.8016 -5.36878 2.69147
-26.8386 -3.91533 0.720514
-26.9151 -3.92649 0.090805
-36.9844 -5.39545 -0.776954
-25.5535 -3.72784 -1.11347
-24.5515 -3.58168 -1.64418
-9.91947 -1.44709 -0.844431
-9.99733 -1.45845 -1.09068
-9.99102 -1.45753 -1.3282
-10.0338 -1.46378 -1.57515
-10.2687 -1.49804 -1.8644
-10.0681 -1.46878 -2.07189
-9.8482 -1.4367 -2.26735
-9.03661 -1.3183 -2.29989
-8.32675 -1.21474 -2.32212
-7.70988 -1.12475 -2.34045
-7.10216 -1.03609 -2.3344
-6.70608 -0.978311 -2.37584
-6.28445 -0.916802 -2.38917
-5.91855 -0.863423 -2.40751
-5.77641 -0.842687 -2.50824
-5.43611 -0.793043 -2.50955
-5.15339 -0.751798 -2.5251
-4.90495 -0.715555 -2.54481
-4.65675 -0.679347 -2.55335
-4.42748 -0.645899 -2.5627
-36.2808 -5.18291 6.99587
-42.6298 -6.08989 5.12664
-36.6649 -5.23778 3.5462
-36.7147 -5.24489 2.68421
-26.9906 -3.85576 0.72381
-26.9326 -3.84746 0.090805
-36.929 -5.27551 -0.775283
-25.4457 -3.63506 -1.10788
-9.84576 -1.40652 -0.604667
-9.98483 -1.42639 -0.85019
-9.94458 -1.42064 -1.08394
-9.91883 -1.41696 -1.31735
-10.0225 -1.43177 -1.57255
-10.3451 -1.47785 -1.8781
-10.0511 -1.43586 -2.06732
-9.83893 -1.40554 -2.26413
-9.06538 -1.29504 -2.30647
-8.33602 -1.19084 -2.32378
-7.71318 -1.10187 -2.34045
-7.12396 -1.0177 -2.3408
-6.69593 -0.956549 -2.37106
-6.29821 -0.899733 -2.39353
-5.91195 -0.844554 -2.40365
-5.78069 -0.825803 -2.50906
-5.43486 -0.776399 -2.50784
-5.16268 -0.737516 -2.52869
-4.90705 -0.700998 -2.54481
-4.6622 -0.66602 -2.55531
-4.42937 -0.63276 -2.5627
-36.1871 -5.06 6.97513
-42.5276 -5.9466 5.11246
-36.5955 -5.11711 3.53821
-36.6234 -5.12101 2.67668
-26.8039 -3.74797 0.719168
-36.9149 -5.16177 0.090805
-36.9326 -5.16425 -0.775004
-25.3872 -3.54986 -1.10462
-9.91114 -1.38586 -0.608992
-9.92197 -1.38738 -0.843874
-9.94285 -1.3903 -1.08325
-9.97203 -1.39438 -1.32431
-13.0875 -1.83001 -2.08031
-10.1003 -1.41231 -1.8307
-10.0243 -1.40169 -2.06067
-9.85462 -1.37796 -2.26689
-9.07876 -1.26947 -2.30901
-8.34523 -1.16691 -2.32543
-7.72965 -1.08083 -2.34462
-7.13633 -0.997866 -2.34401
-6.68943 -0.935376 -2.36764
-6.28425 -0.87872 -2.38699
-5.91992 -0.827776 -2.40597
-5.77769 -0.807889 -2.50662
-5.44609 -0.761522 -2.51212
-5.15776 -0.721204 -2.5251
-4.90736 -0.686191 -2.54387
-4.66416 -0.652184 -2.55531
-4.43123 -0.619615 -2.5627
-36.1182 -4.94115 6.95921
-36.2088 -4.95355 6.0951
-42.4467 -5.80692 5.10085
-36.506 -4.9942 3.52836
-36.5574 -5.00124 2.67096
-26.2979 -3.59769 0.707052
-26.8281 -3.67022 0.090805
-36.8606 -5.04273 -0.772961
-25.4055 -3.4756 -1.10499
-9.83021 -1.34482 -0.602993
-9.7978 -1.34039 -0.831798
-9.90954 -1.35568 -1.07883
-9.97416 -1.36452 -1.32403
-9.97804 -1.36505 -1.5638
-10.1317 -1.38607 -1.83589
-9.98776 -1.36638 -2.05193
-9.83938 -1.34608 -2.26228
-9.09207 -1.24384 -2.31154
-8.33532 -1.14031 -2.32157
-7.73471 -1.05815 -2.34522
-7.13175 -0.97566 -2.34144
-6.69032 -0.91527 -2.36695
-6.2776 -0.858808 -2.38335
-5.92052 -0.809957 -2.40519
-5.78911 -0.791981 -2.51068
-5.43937 -0.744134 -2.50784
-5.16696 -0.706867 -2.52869
-4.90063 -0.670431 -2.53918
-4.66953 -0.638815 -2.55727
-4.42964 -0.605998 -2.56066
-36.0361 -4.81465 6.94069
-36.1146 -4.82514 6.07694
-42.3564 -5.65908 5.08807
-36.4248 -4.86657 3.51926
-36.4839 -4.87448 2.66468
-26.1386 -3.49228 0.703059
-26.7384 -3.57241 0.090805
-36.7673 -4.91234 -0.770408
-25.5232 -3.41006 -1.11002
-24.494 -3.27255 -1.6372
-9.92236 -1.32569 -0.84313
-9.92163 -1.32559 -1.07976
-9.94503 -1.32872 -1.3193
-10.1075 -1.35042 -1.58455
-10.0659 -1.34486 -1.82256
-9.992 -1.33499 -2.05193
-9.82042 -1.31207 -2.25675
-9.09402 -1.21502 -2.31103
-8.34268 -1.11463 -2.32268
-7.72665 -1.03233 -2.34164
-7.13666 -0.953501 -2.34208
-6.66894 -0.891011 -2.35806
-6.28765 -0.840069 -2.38626
-5.92303 -0.791354 -2.40519
-5.78976 -0.773548 -2.50987
-5.44527 -0.727521 -2.50955
-5.17093 -0.690868 -2.52959
-4.90971 -0.655967 -2.54293
-4.65941 -0.622526 -2.55041
-4.42811 -0.591623 -2.55862
-35.9676 -4.70329 6.92514
-36.0673 -4.71633 6.06689
-42.2775 -5.52841 5.07692
-36.3335 -4.75115 3.50941
-36.4123 -4.76145 2.65868
-26.2216 -3.42887 0.704777
