# .PCD v0.7 - Point Cloud Data file format
VERSION 0.7
FIELDS x y z
SIZE 4 4 4
TYPE F F F
COUNT 1 1 1
WIDTH 1833
HEIGHT 1
VIEWPOINT 0 0 0 1 0 0 0
POINTS 1833
DATA ascii
14.6757 0.020491 -3.38649
12.9167 0.018035 -3.29061
11.5505 0.016128 -3.22125
10.4338 0.014568 -3.16497
9.50409 0.01327 -3.12061
8.74665 0.012213 -3.09272
8.07983 0.011282 -3.06427
7.53878 0.010526 -3.0581
7.02516 0.009809 -3.037
6.57466 0.00918 -3.02124
6.18554 0.008637 -3.01614
5.81509 0.008119 -3.00114
5.468 0.007635 -2.98147
5.14351 0.007182 -2.95955
64.2031 -0.10085 -5.89905
38.6744 -0.06075 -4.43187
32.4451 -0.050965 -4.46906
24.4975 -0.038481 -3.934
20.061 -0.031512 -3.68889
16.9004 -0.026547 -3.50149
14.6659 -0.023037 -3.38418
12.9167 -0.02029 -3.29061
11.5428 -0.018131 -3.21905
10.4243 -0.016374 -3.16199
9.50408 -0.014929 -3.12061
8.74665 -0.013739 -3.09272
8.08356 -0.012698 -3.06572
7.53509 -0.011836 -3.05656
7.03064 -0.011044 -3.03944
6.57466 -0.010327 -3.02124
6.18018 -0.009708 -3.01345
5.80626 -0.00912 -2.99644
5.45057 -0.008562 -2.97167
5.13491 -0.008066 -2.95445
64.1846 -0.302465 -5.89738
32.3834 -0.152604 -4.46043
24.4855 -0.115386 -3.93205
20.0746 -0.0946 -3.69148
16.8905 -0.079595 -3.49941
14.6638 -0.069102 -3.38372
12.903 -0.060805 -3.28706
11.5427 -0.054394 -3.21905
10.4204 -0.049105 -3.1608
9.50778 -0.044805 -3.12189
8.73904 -0.041182 -3.08998
8.07975 -0.038075 -3.06427
7.53501 -0.035508 -3.05656
7.01961 -0.033079 -3.03456
6.5746 -0.030982 -3.02124
6.17833 -0.029115 -3.01255
5.80797 -0.02737 -2.99738
5.454 -0.025702 -2.97363
5.1469 -0.024254 -2.96159
64.1137 -0.492367 -5.89088
38.7706 -0.297743 -4.44325
24.5087 -0.188217 -3.93594
20.0644 -0.154086 -3.68963
16.9195 -0.129935 -3.50565
14.6636 -0.11261 -3.38372
12.8989 -0.099059 -3.28605
11.5386 -0.088612 -3.21795
10.4087 -0.079935 -3.15722
9.50382 -0.072986 -3.12061
8.74452 -0.067154 -3.09203
8.08333 -0.062077 -3.06572
7.52749 -0.057808 -3.05348
7.02496 -0.053949 -3.037
6.57086 -0.050462 -3.01953
6.17821 -0.047446 -3.01255
5.80786 -0.044602 -2.99738
5.45739 -0.041911 -2.97559
5.13992 -0.039473 -2.95751
64.1778 -0.672093 -5.89701
38.7458 -0.40576 -4.44047
32.3028 -0.338286 -4.4493
24.5377 -0.256967 -3.94081
20.0639 -0.210116 -3.68963
16.9171 -0.177162 -3.50524
14.6535 -0.153456 -3.38142
12.9334 -0.135444 -3.29517
11.5633 -0.121095 -3.22511
10.4142 -0.109061 -3.15901
9.532 -0.099822 -3.13021
8.76309 -0.09177 -3.09888
8.09616 -0.084786 -3.07082
7.53653 -0.078925 -3.05733
7.02295 -0.073547 -3.03619
6.57431 -0.068849 -3.02124
6.16912 -0.064605 -3.00806
5.80595 -0.060802 -2.99644
5.45725 -0.05715 -2.97559
5.14323 -0.053862 -2.95955
32.2519 -0.444721 -4.44234
24.4696 -0.337411 -3.92978
20.0179 -0.276026 -3.68111
16.889 -0.232883 -3.49941
14.6529 -0.202048 -3.38142
12.9232 -0.178198 -3.29263
11.5725 -0.159573 -3.22787
10.408 -0.143516 -3.15722
9.51835 -0.131248 -3.12573
8.77026 -0.120933 -3.10161
8.10515 -0.111762 -3.07445
7.55837 -0.104222 -3.06658
7.04459 -0.097138 -3.04595
6.58308 -0.090774 -3.02552
6.17602 -0.085161 -3.01165
5.80748 -0.080079 -2.99738
5.46052 -0.075295 -2.97755
5.15851 -0.071131 -2.96873
32.3001 -0.535605 -4.4493
24.4666 -0.405708 -3.92946
20.0288 -0.332121 -3.68334
16.8394 -0.279234 -3.48902
14.6445 -0.242837 -3.37957
12.8975 -0.213869 -3.28605
11.5624 -0.191729 -3.22511
10.4114 -0.172643 -3.15841
9.50279 -0.157577 -3.12061
8.76049 -0.145268 -3.09819
8.09736 -0.134272 -3.07154
7.54882 -0.125176 -3.06273
7.05708 -0.117022 -3.05164
6.59545 -0.109367 -3.03151
6.17218 -0.102348 -3.00986
5.8037 -0.096238 -2.9955
5.4568 -0.090485 -2.97559
5.18925 -0.086049 -2.98709
24.4474 -0.48222 -3.92654
20.006 -0.394615 -3.67926
16.8091 -0.331556 -3.48278
14.6339 -0.28865 -3.37727
12.862 -0.2537 -3.27693
11.5156 -0.227143 -3.21188
10.3955 -0.20505 -3.15365
9.49657 -0.187318 -3.11869
8.73932 -0.172381 -3.09067
8.08199 -0.159416 -3.06572
7.53363 -0.148599 -3.05656
7.04937 -0.139047 -3.04839
6.59869 -0.130158 -3.03322
6.17005 -0.121703 -3.00896
5.79984 -0.114401 -2.99362
5.44603 -0.107422 -2.96971
5.19411 -0.102453 -2.99016
24.4263 -0.550044 -3.9233
19.9813 -0.44995 -3.67482
16.8336 -0.379068 -3.48819
14.6272 -0.329383 -3.37588
12.869 -0.289791 -3.27896
11.5149 -0.259299 -3.21188
10.4006 -0.234208 -3.15543
9.4657 -0.213154 -3.10844
8.70311 -0.195981 -3.07767
8.07965 -0.181942 -3.065
7.53134 -0.169595 -3.05579
7.02704 -0.158239 -3.03863
6.58746 -0.14834 -3.02808
6.16254 -0.138771 -3.00537
5.79773 -0.130556 -2.99268
5.44745 -0.122669 -2.97069
5.19552 -0.116996 -2.99118
24.4047 -0.626272 -3.92006
19.9817 -0.512771 -3.67519
16.8264 -0.431799 -3.48694
14.6164 -0.375085 -3.37358
12.8719 -0.330317 -3.27997
11.5275 -0.295818 -3.21574
10.3941 -0.266734 -3.15365
9.45361 -0.242598 -3.1046
8.70245 -0.223322 -3.07767
8.01758 -0.205747 -3.04099
7.52339 -0.193065 -3.05271
7.03016 -0.180408 -3.04025
6.58335 -0.168942 -3.02637
6.16386 -0.158177 -3.00627
5.80082 -0.148861 -2.99456
5.44878 -0.139826 -2.97167
5.16762 -0.132611 -2.97485
24.3734 -0.689324 -3.91519
19.9705 -0.564803 -3.67334
16.8272 -0.475904 -3.48735
14.6173 -0.413404 -3.37404
12.8768 -0.364179 -3.28149
11.5248 -0.325942 -3.21519
10.3953 -0.293999 -3.15424
9.47378 -0.267936 -3.11165
8.71874 -0.246582 -3.08383
8.0673 -0.228158 -3.06063
7.48597 -0.211717 -3.03729
6.96939 -0.197107 -3.01341
6.57746 -0.186023 -3.02381
6.16163 -0.174263 -3.00537
5.79512 -0.163897 -2.99174
5.45188 -0.154189 -2.97363
5.16725 -0.14614 -2.97485
24.367 -0.770021 -3.91454
19.9646 -0.630901 -3.6726
16.8099 -0.531209 -3.48403
14.6061 -0.461567 -3.37173
12.86 -0.406389 -3.27744
11.5255 -0.364218 -3.21574
10.3886 -0.328288 -3.15245
9.48042 -0.29959 -3.11421
8.71224 -0.275315 -3.08177
8.06091 -0.254733 -3.05845
7.48338 -0.236482 -3.03652
7.0107 -0.221545 -3.03212
6.5208 -0.206064 -2.99728
6.15924 -0.194638 -3.00447
5.79807 -0.183225 -2.99362
5.44437 -0.172047 -2.96971
5.17706 -0.1636 -2.98097
24.3569 -0.837792 -3.91325
19.9588 -0.686515 -3.67186
16.8044 -0.578014 -3.4832
14.6067 -0.50242 -3.3722
12.8492 -0.441966 -3.27491
11.5091 -0.395874 -3.21133
10.3761 -0.356904 -3.14888
9.47386 -0.325868 -3.11229
8.71144 -0.299643 -3.08177
8.06017 -0.277242 -3.05845
7.51957 -0.258647 -3.05193
7.01006 -0.241122 -3.03212
6.52923 -0.224583 -3.00156
6.15688 -0.211775 -3.00358
5.7993 -0.199476 -2.99456
5.44561 -0.18731 -2.97069
5.09749 -0.175336 -2.93404
36.9798 -1.3883 -4.23674
24.3443 -0.913937 -3.91163
19.9644 -0.749509 -3.67334
16.8006 -0.63073 -3.48278
14.607 -0.548379 -3.37266
12.8438 -0.482186 -3.27389
11.504 -0.431884 -3.21023
10.3712 -0.389356 -3.14769
9.47658 -0.355772 -3.11357
8.71045 -0.32701 -3.08177
8.06484 -0.302772 -3.06063
7.5095 -0.281923 -3.04808
7.00926 -0.263143 -3.03212
6.55559 -0.246111 -3.01439
6.15797 -0.231184 -3.00447
5.79688 -0.217628 -2.99362
5.44325 -0.204352 -2.96971
5.11239 -0.19193 -2.94323
36.9693 -1.50423 -4.23604
31.981 -1.30126 -4.40755
24.3235 -0.98969 -3.90871
19.96 -0.812145 -3.67297
16.7907 -0.683189 -3.48112
14.5994 -0.594028 -3.37127
12.8384 -0.522376 -3.27288
11.5006 -0.467945 -3.20968
10.3642 -0.421703 -3.1459
9.47163 -0.385387 -3.11229
8.7075 -0.354296 -3.08109
8.05827 -0.32788 -3.05845
7.51043 -0.305589 -3.04885
6.99745 -0.284716 -3.02724
6.55839 -0.266852 -3.01611
6.16436 -0.250819 -3.00806
5.79793 -0.23591 -2.99456
5.44433 -0.221522 -2.97069
5.13754 -0.209039 -2.95853
63.9794 -2.78221 -5.88382
36.8538 -1.60263 -4.22303
24.3147 -1.05735 -3.90774
19.9694 -0.868393 -3.67519
16.775 -0.72948 -3.47821
14.5918 -0.634541 -3.36989
12.8407 -0.558394 -3.27389
11.5012 -0.500142 -3.21023
10.3725 -0.451059 -3.14888
9.46862 -0.411753 -3.11165
8.70648 -0.378611 -3.08109
8.04801 -0.349977 -3.05481
7.50586 -0.3264 -3.04731
7.00393 -0.304573 -3.03049
6.55582 -0.285087 -3.01525
6.14578 -0.267256 -2.99909
5.79196 -0.25187 -2.99174
5.43672 -0.236422 -2.96677
5.14038 -0.223535 -2.96057
50.2688 -2.34424 -4.60414
24.2778 -1.13217 -3.90222
19.9666 -0.931124 -3.67519
16.7902 -0.782997 -3.48195
14.5917 -0.68047 -3.37035
12.8351 -0.598551 -3.27288
11.4919 -0.535913 -3.20802
10.3538 -0.482842 -3.14352
9.45971 -0.441145 -3.10908
8.6846 -0.404998 -3.07356
8.0506 -0.375432 -3.05626
7.50111 -0.349807 -3.04577
6.99746 -0.32632 -3.02805
6.5585 -0.30585 -3.01696
6.15205 -0.286895 -3.00268
5.78585 -0.269818 -2.98893
5.44117 -0.253744 -2.96971
5.12934 -0.239202 -2.95445
38.6484 -1.91727 -3.51935
38.5595 -1.91286 -4.42397
24.2625 -1.20361 -3.90028
19.9618 -0.990265 -3.67482
16.7878 -0.832811 -3.48195
14.5857 -0.723568 -3.36943
12.8255 -0.636247 -3.27086
11.4845 -0.569722 -3.20637
10.3409 -0.512993 -3.13994
9.45836 -0.46921 -3.10908
8.70025 -0.431602 -3.07972
8.05875 -0.399778 -3.0599
7.49819 -0.37197 -3.045
7.00376 -0.347443 -3.03131
6.55576 -0.325218 -3.01611
6.1476 -0.30497 -3.00088
5.78855 -0.287158 -2.99081
5.43865 -0.269801 -2.96873
5.12689 -0.254335 -2.95343
50.2461 -2.64208 -4.6034
38.7084 -2.03539 -4.44209
24.2174 -1.27342 -3.89347
19.9647 -1.0498 -3.67593
16.7814 -0.882412 -3.48112
14.5796 -0.766637 -3.36851
12.8139 -0.673791 -3.26832
11.4808 -0.603694 -3.20582
10.3546 -0.544475 -3.14471
9.45314 -0.497073 -3.1078
8.69518 -0.457217 -3.07835
8.04451 -0.423003 -3.05481
7.49521 -0.394119 -3.04422
7.0027 -0.368222 -3.03131
6.54755 -0.344288 -3.01268
6.15202 -0.323491 -3.00358
5.78591 -0.304239 -2.98987
5.44131 -0.286119 -2.97069
5.12611 -0.269545 -2.95343
50.1928 -2.77985 -4.59912
24.1882 -1.33962 -3.88925
19.9479 -1.10478 -3.67334
16.7867 -0.929704 -3.48278
14.5774 -0.807348 -3.36851
12.8081 -0.709357 -3.26731
11.4753 -0.63554 -3.20472
10.3397 -0.572649 -3.14054
9.44415 -0.52305 -3.10524
8.68824 -0.481185 -3.0763
8.04887 -0.445774 -3.05699
7.50145 -0.415456 -3.04731
6.99617 -0.387472 -3.02887
6.54295 -0.362371 -3.01097
6.1511 -0.340669 -3.00358
5.7868 -0.320493 -2.99081
5.43179 -0.300831 -2.96579
5.13221 -0.284239 -2.95751
50.2509 -2.95025 -4.60544
48.8425 -2.86756 -5.63078
24.1599 -1.41844 -3.88536
19.9677 -1.17231 -3.67778
16.7991 -0.986283 -3.48611
14.5708 -0.855456 -3.36758
12.8076 -0.75194 -3.26782
11.4712 -0.673477 -3.20416
10.3339 -0.60671 -3.13935
9.44615 -0.554587 -3.10652
8.69035 -0.510214 -3.07767
8.04735 -0.472463 -3.05699
7.49266 -0.439897 -3.04422
6.99667 -0.410777 -3.02968
6.54532 -0.384278 -3.01268
6.13923 -0.360436 -2.99819
5.78218 -0.339474 -2.98893
5.43076 -0.318842 -2.96579
5.11407 -0.300249 -2.94731
50.2677 -3.10093 -4.60785
38.5535 -2.3783 -4.4263
31.6502 -1.95244 -4.3658
24.1281 -1.48842 -3.88082
19.9759 -1.23228 -3.68
16.8039 -1.0366 -3.48777
14.5546 -0.897846 -3.36436
12.8034 -0.789818 -3.26731
11.4806 -0.70822 -3.20747
10.3321 -0.637368 -3.13935
9.44257 -0.582495 -3.10588
8.68129 -0.535533 -3.07493
8.04406 -0.496223 -3.05626
7.48949 -0.462013 -3.04345
6.98995 -0.431198 -3.02724
6.54054 -0.403474 -3.01097
6.14884 -0.379311 -3.00358
5.77586 -0.356302 -2.98611
5.42805 -0.334847 -2.96481
5.13376 -0.316692 -2.95955
38.578 -2.48796 -3.51582
38.5705 -2.48748 -4.42908
24.0844 -1.55325 -3.87434
19.9606 -1.2873 -3.67778
16.8068 -1.0839 -3.48902
14.5637 -0.939238 -3.36712
12.8011 -0.825569 -3.26731
11.4613 -0.739163 -3.20251
10.3303 -0.666218 -3.13935
9.4409 -0.608861 -3.10588
8.67976 -0.559774 -3.07493
8.02405 -0.517485 -3.04899
7.4808 -0.48245 -3.04037
6.97596 -0.449892 -3.02154
6.543 -0.42197 -3.01268
6.13705 -0.39579 -2.99819
5.77837 -0.372657 -2.98799
5.44102 -0.350901 -2.97265
5.12599 -0.330584 -2.95547
38.5982 -2.60429 -3.51842
24.0482 -1.62258 -3.86915
19.9508 -1.34612 -3.67667
16.7996 -1.1335 -3.48819
14.555 -0.982052 -3.36574
12.789 -0.862896 -3.26478
11.4553 -0.772907 -3.20141
10.3244 -0.696609 -3.13816
9.43717 -0.636743 -3.10524
8.68369 -0.585904 -3.07699
8.03363 -0.542044 -3.05335
7.48302 -0.504893 -3.04191
6.98553 -0.471326 -3.02643
6.5309 -0.440651 -3.00755
6.14298 -0.414478 -3.00178
5.77724 -0.389801 -2.98799
5.42951 -0.366339 -2.96677
5.13013 -0.346139 -2.95853
26.1946 -1.85008 -1.74546
38.6097 -2.72694 -3.52028
24.0095 -1.69575 -3.86364
19.9543 -1.40934 -3.67815
16.8077 -1.1871 -3.49068
14.5518 -1.02777 -3.36574
12.7881 -0.903205 -3.26528
11.447 -0.808485 -3.19975
10.326 -0.72931 -3.13935
9.43512 -0.666387 -3.10524
8.67431 -0.612652 -3.07425
8.03003 -0.567148 -3.05263
7.48508 -0.528659 -3.04345
6.98402 -0.49327 -3.02643
6.53489 -0.461549 -3.01011
6.13274 -0.433145 -2.99729
5.77951 -0.408197 -2.98987
5.42312 -0.383026 -2.96383
5.12387 -0.361891 -2.95547
26.6188 -1.95943 -1.7756
38.5975 -2.8412 -3.5199
31.3779 -2.30976 -4.331
23.9611 -1.7638 -3.8565
19.9677 -1.46984 -3.68148
16.81 -1.2374 -3.49193
14.5448 -1.07066 -3.36482
12.7796 -0.940718 -3.26376
11.4427 -0.842304 -3.1992
10.3143 -0.759244 -3.13637
9.42932 -0.694101 -3.10396
8.67432 -0.638525 -3.07493
8.03388 -0.591381 -3.05481
7.47979 -0.550594 -3.04191
6.98434 -0.514124 -3.02724
6.52989 -0.480671 -3.0084
6.13321 -0.451471 -2.99819
5.77122 -0.424825 -2.98611
5.4237 -0.399243 -2.96481
5.12106 -0.376966 -2.95445
26.3937 -2.02625 -1.76025
38.5844 -2.96213 -3.51953
31.3705 -2.40832 -4.331
23.918 -1.83619 -3.85034
19.9708 -1.53316 -3.68296
16.804 -1.29005 -3.49151
14.5336 -1.11575 -3.36297
12.7727 -0.980566 -3.26275
11.438 -0.878101 -3.19865
10.3138 -0.791789 -3.13697
9.42332 -0.72343 -3.10268
8.66478 -0.665197 -3.0722
8.02641 -0.61619 -3.05263
7.47067 -0.573525 -3.03883
6.98998 -0.536622 -3.03049
6.52834 -0.501182 -3.0084
6.1371 -0.471147 -3.00088
5.76986 -0.442954 -2.98611
5.4172 -0.41588 -2.96187
5.11299 -0.392525 -2.95037
26.7742 -2.13068 -1.16173
26.5132 -2.10992 -1.76904
38.5899 -3.07098 -3.52083
38.8159 -3.08897 -4.46277
31.2649 -2.48806 -4.31708
23.8656 -1.89922 -3.84256
19.9586 -1.58831 -3.68148
16.7984 -1.33682 -3.4911
14.5305 -1.15633 -3.36297
12.7738 -1.01654 -3.26376
11.4317 -0.909734 -3.19755
10.3001 -0.819679 -3.13339
9.42315 -0.749892 -3.10332
8.66289 -0.689391 -3.0722
8.0228 -0.638453 -3.0519
7.45432 -0.593213 -3.03266
6.98299 -0.555705 -3.02805
6.52692 -0.519411 -3.0084
6.13042 -0.487858 -2.99819
5.7686 -0.459064 -2.98611
5.41428 -0.430867 -2.96089
5.10844 -0.406529 -2.94833
26.6678 -2.20655 -1.15707
38.59 -3.19302 -3.52176
39.1644 -3.24054 -4.50481
31.2076 -2.58218 -4.31013
23.8418 -1.97272 -3.83964
19.9849 -1.65359 -3.68741
16.8019 -1.39023 -3.49276
14.5287 -1.20214 -3.36343
12.759 -1.0557 -3.26072
11.4211 -0.945009 -3.19534
10.2879 -0.851246 -3.13041
9.40753 -0.778399 -3.09884
8.65132 -0.715828 -3.06878
8.02262 -0.663808 -3.05263
7.46713 -0.617846 -3.03883
6.97757 -0.577339 -3.02643
6.53426 -0.540659 -3.01268
6.13064 -0.507262 -2.99909
5.76713 -0.477185 -2.98611
5.41985 -0.44845 -2.96481
5.10885 -0.422717 -2.94935
26.9937 -2.31418 -0.538208
26.4422 -2.2669 -1.765
38.83 -3.3289 -4.46672
31.1584 -2.67122 -4.30428
23.8162 -2.04177 -3.8364
19.9877 -1.71355 -3.68889
16.7997 -1.44024 -3.49318
14.5231 -1.24507 -3.36297
12.75 -1.09306 -3.25921
11.4125 -0.978399 -3.19369
10.293 -0.88242 -3.1328
9.41084 -0.806794 -3.10076
8.6529 -0.741815 -3.07015
8.01875 -0.68745 -3.0519
7.47446 -0.640787 -3.04268
6.97582 -0.598039 -3.02643
6.53263 -0.560044 -3.01268
6.12732 -0.525297 -2.99819
5.77273 -0.494897 -2.98987
5.41328 -0.464082 -2.96187
5.10415 -0.43758 -2.94731
26.6642 -2.36564 -1.15754
26.332 -2.33617 -1.75774
26.1215 -2.3175 -2.35578
31.1424 -2.76295 -4.30317
23.7963 -2.1112 -3.83413
19.9904 -1.77354 -3.69037
16.7953 -1.49008 -3.49318
14.5155 -1.28781 -3.36205
12.7563 -1.13174 -3.26174
11.4134 -1.0126 -3.19479
10.2884 -0.912787 -3.1322
9.39897 -0.833875 -3.09756
8.65066 -0.767485 -3.07015
8.01297 -0.710909 -3.05044
7.46333 -0.662146 -3.03883
6.97948 -0.619219 -3.02887
6.52914 -0.579264 -3.01183
6.13108 -0.543949 -3.00088
5.76244 -0.511243 -2.98517
5.41362 -0.480295 -2.96285
5.10797 -0.453178 -2.95037
26.7186 -2.4504 -0.532126
26.0369 -2.38787 -1.73751
26.2533 -2.40772 -2.36879
31.0848 -2.85082 -4.29621
23.7761 -2.18053 -3.83186
19.9948 -1.83375 -3.69222
16.7928 -1.54008 -3.49359
14.5077 -1.33052 -3.36113
12.7452 -1.16888 -3.25971
11.4008 -1.04558 -3.19204
10.2838 -0.943135 -3.1316
9.39268 -0.861413 -3.09628
8.64647 -0.792978 -3.06946
8.01453 -0.735022 -3.0519
7.45582 -0.683782 -3.03652
6.97033 -0.639257 -3.02561
6.49859 -0.595993 -2.99814
6.13122 -0.562301 -3.00178
5.76441 -0.528661 -2.98705
5.41217 -0.496356 -2.96285
5.10832 -0.468489 -2.95139
49.8216 -4.7183 -1.07108
26.9042 -2.54794 -1.16946
26.1687 -2.47828 -1.74728
26.2937 -2.49011 -2.37325
31.0269 -2.93837 -4.28925
23.7538 -2.24958 -3.82927
19.9971 -1.8938 -3.6937
16.7823 -1.58935 -3.49234
14.496 -1.37283 -3.35928
12.7378 -1.20632 -3.2587
11.3938 -1.07904 -3.19093
10.2771 -0.973283 -3.13041
9.38631 -0.88892 -3.095
8.64782 -0.818983 -3.07083
8.00304 -0.75792 -3.04826
7.45744 -0.706248 -3.03806
6.97023 -0.660108 -3.02643
6.51479 -0.616976 -3.00669
6.12596 -0.580153 -2.99998
5.76458 -0.545928 -2.98799
5.41761 -0.513069 -2.96677
5.11033 -0.483968 -2.95343
50.5576 -4.9394 -1.08858
26.658 -2.60444 -1.15828
26.1196 -2.55184 -1.74435
25.973 -2.53752 -2.34389
26.3758 -2.57688 -3.00833
29.447 -2.87693 -4.06741
23.7117 -2.3166 -3.82343
19.966 -1.95064 -3.68889
16.7775 -1.63914 -3.49234
14.4899 -1.41564 -3.35882
12.7284 -1.24355 -3.25718
11.3848 -1.11228 -3.18928
10.2704 -1.0034 -3.12922
9.38174 -0.916582 -3.09436
8.636 -0.843724 -3.06741
8.00076 -0.781662 -3.04826
7.45163 -0.728013 -3.03652
6.96096 -0.680075 -3.02317
6.51473 -0.636479 -3.00755
6.12599 -0.5985 -3.00088
5.76469 -0.563201 -2.98893
5.4126 -0.528803 -2.96481
5.10544 -0.498794 -2.95139
25.9318 -2.6112 -0.5143
26.2307 -2.64129 -1.13862
26.088 -2.62693 -1.74267
25.9535 -2.61338 -2.34278
26.4649 -2.66488 -3.01971
29.531 -2.97361 -4.08049
23.6812 -2.38457 -3.81954
19.7352 -1.98723 -3.6463
16.7706 -1.68871 -3.49193
14.4779 -1.45785 -3.35698
12.7189 -1.28073 -3.25566
11.3834 -1.14624 -3.18983
10.2655 -1.03368 -3.12862
9.38275 -0.944794 -3.09564
8.63346 -0.869344 -3.06741
8.00397 -0.805957 -3.05044
7.45128 -0.750304 -3.03729
6.96073 -0.700909 -3.02398
6.51641 -0.656168 -3.00926
6.12597 -0.616853 -3.00178
5.76475 -0.58048 -2.98987
5.41101 -0.54486 -2.96481
5.0971 -0.513251 -2.94731
25.9434 -2.69472 -0.514765
26.1646 -2.7177 -1.13592
26.1233 -2.71341 -1.74574
25.9927 -2.69984 -2.34724
26.4584 -2.74821 -3.01994
29.423 -3.05614 -4.06657
23.6343 -2.45487 -3.81306
19.3829 -2.01328 -3.58076
16.7905 -1.74402 -3.49734
14.4752 -1.50353 -3.35744
12.7148 -1.32068 -3.25566
11.3759 -1.1816 -3.18873
10.2584 -1.06553 -3.12743
9.38162 -0.974461 -3.09628
8.63443 -0.896851 -3.06878
7.99954 -0.830906 -3.04972
7.44705 -0.773519 -3.03652
6.95668 -0.722584 -3.02317
6.50892 -0.676076 -3.00669
6.124 -0.636095 -3.00178
5.75763 -0.59804 -2.98705
5.411 -0.562036 -2.96579
5.09546 -0.529261 -2.94731
25.8975 -2.76765 -0.513883
26.1068 -2.79001 -1.13359
26.0834 -2.78751 -1.74351
25.644 -2.74055 -2.31528
29.1243 -3.11249 -4.02566
23.6151 -2.52373 -3.81111
19.3455 -2.06744 -3.57484
16.795 -1.79487 -3.49941
14.4629 -1.54564 -3.3556
12.7051 -1.35778 -3.25414
11.3742 -1.21556 -3.18928
10.2552 -1.09596 -3.12743
9.37304 -1.00169 -3.09436
8.62612 -0.921867 -3.06672
7.99334 -0.854241 -3.04826
7.44472 -0.795611 -3.03652
6.94905 -0.742639 -3.02073
6.51228 -0.695962 -3.00926
6.11853 -0.653883 -2.99998
5.75758 -0.615308 -2.98799
5.40758 -0.577903 -2.96481
5.08873 -0.543829 -2.94425
25.9951 -2.85611 -1.12875
25.958 -2.85204 -1.73528
25.4734 -2.79879 -2.30005
26.1889 -2.8774 -2.99021
29.0598 -3.19283 -4.01786
23.582 -2.59098 -3.8069
19.3452 -2.12547 -3.57595
16.7857 -1.84427 -3.49858
14.4583 -1.58855 -3.3556
12.6952 -1.39484 -3.25262
11.3706 -1.2493 -3.18928
10.2519 -1.12638 -3.12743
9.36438 -1.02887 -3.09244
8.62895 -0.948072 -3.06878
7.99447 -0.878361 -3.04972
7.44049 -0.817495 -3.03575
6.94864 -0.763454 -3.02154
6.5012 -0.714294 -3.00498
6.10768 -0.671058 -2.9955
5.75398 -0.632196 -2.98705
5.40584 -0.593945 -2.96481
5.09736 -0.560052 -2.95037
26.0188 -2.93228 -1.13024
25.5951 -2.88452 -1.71031
26.0097 -2.93124 -2.35114
25.6241 -2.88779 -2.9247
28.9268 -3.26 -4.00033
23.5512 -2.65417 -3.80301
19.2474 -2.16914 -3.55854
16.7747 -1.89048 -3.49734
14.446 -1.62804 -3.35375
12.6932 -1.4305 -3.25313
11.3613 -1.2804 -3.18763
10.2354 -1.15351 -3.12326
9.36523 -1.05544 -3.09372
8.62067 -0.971534 -3.06672
7.98088 -0.899431 -3.04535
7.43635 -0.838063 -3.03498
6.94648 -0.782855 -3.02154
6.50098 -0.732648 -3.00584
6.10934 -0.688511 -2.99729
5.74693 -0.647668 -2.98423
5.40069 -0.608648 -2.96285
5.09065 -0.573707 -2.94731
25.9514 -3.01186 -1.12754
25.403 -2.94822 -1.69747
25.6715 -2.97937 -2.3203
25.7406 -2.9874 -2.93957
28.8057 -3.34312 -3.98474
23.5207 -2.72976 -3.79944
19.2264 -2.23137 -3.55595
16.7741 -1.94677 -3.49858
14.4386 -1.67571 -3.35329
12.6826 -1.47192 -3.25161
11.3532 -1.31763 -3.18652
10.2372 -1.18811 -3.12505
9.35415 -1.08562 -3.09116
8.6174 -1.00012 -3.06672
7.9834 -0.926535 -3.04753
7.43903 -0.863356 -3.03729
6.94747 -0.806308 -3.02317
6.50031 -0.754411 -3.00669
6.10702 -0.708767 -2.99729
5.74299 -0.666519 -2.9833
5.40384 -0.627157 -2.96579
5.09042 -0.590783 -2.94833
25.7429 -3.06509 -1.72203
25.7416 -3.06494 -2.32773
25.42 -3.02665 -2.90286
28.7268 -3.42038 -3.975
23.4988 -2.7979 -3.79717
19.1592 -2.2812 -3.54447
16.6634 -1.98404 -3.47613
14.4336 -1.71855 -3.35329
12.6801 -1.50977 -3.25211
11.3378 -1.34994 -3.18322
10.2355 -1.2187 -3.12565
9.35653 -1.11404 -3.09308
8.6088 -1.02501 -3.06467
7.97877 -0.949998 -3.04681
7.42727 -0.884333 -3.03343
6.93961 -0.82627 -3.02073
6.49624 -0.77348 -3.00584
6.10312 -0.726672 -2.99639
5.75151 -0.684808 -2.98893
5.40022 -0.642982 -2.96481
5.0784 -0.604664 -2.94221
25.3712 -3.09722 -1.6965
25.9004 -3.16182 -2.34352
25.8802 -3.15935 -2.95815
28.6221 -3.49408 -3.96164
23.4708 -2.86522 -3.79393
19.0821 -2.32947 -3.53114
16.3545 -1.99649 -3.41126
14.4207 -1.76042 -3.35145
12.6679 -1.54645 -3.25009
11.328 -1.38288 -3.18156
10.2224 -1.24791 -3.12267
9.34754 -1.14111 -3.09116
8.60945 -1.05101 -3.06604
7.96852 -0.972765 -3.0439
7.43011 -0.907038 -3.03575
6.94256 -0.84752 -3.02317
6.48854 -0.792094 -3.00327
6.10093 -0.744777 -2.99639
5.7442 -0.701228 -2.98611
5.3931 -0.658368 -2.96187
5.07829 -0.619937 -2.94323
25.4431 -3.18264 -1.70222
25.4938 -3.18897 -2.30618
25.6716 -3.21122 -2.93469
28.4132 -3.55416 -3.93352
23.4582 -2.93435 -3.79328
19.0069 -2.37754 -3.51818
16.1563 -2.02097 -3.37009
14.4135 -1.80296 -3.35098
12.6575 -1.58331 -3.24857
11.3124 -1.41505 -3.17825
10.2243 -1.27894 -3.12446
9.34224 -1.1686 -3.09052
8.60256 -1.07608 -3.06467
7.96375 -0.996172 -3.04317
7.43105 -0.929537 -3.03729
6.94183 -0.868342 -3.02398
6.47719 -0.810221 -2.99899
6.10402 -0.763541 -2.99909
5.73683 -0.717611 -2.9833
5.38939 -0.67415 -2.96089
5.08326 -0.635856 -2.94731
25.671 -3.28853 -1.71896
25.6797 -3.28965 -2.32457
25.3723 -3.25027 -2.90054
28.2159 -3.61454 -3.90708
23.4416 -3.00294 -3.79198
18.9841 -2.43192 -3.51522
16.1328 -2.06666 -3.36635
14.4254 -1.84794 -3.35513
12.647 -1.62012 -3.24705
11.3024 -1.44788 -3.1766
10.2148 -1.30855 -3.12267
9.34437 -1.19704 -3.09244
8.59747 -1.10136 -3.06399
7.96445 -1.02027 -3.04462
7.42093 -0.950644 -3.0342
6.92835 -0.887542 -3.0191
6.48372 -0.830584 -3.00327
6.09109 -0.780286 -2.9937
5.73468 -0.734629 -2.9833
5.39602 -0.691246 -2.96579
5.07794 -0.650499 -2.94527
50.6555 -6.65093 -1.09536
50.7151 -6.65877 -2.29455
25.6507 -3.36787 -1.71826
25.6673 -3.37005 -2.32438
25.9903 -3.41246 -2.97464
28.224 -3.70574 -3.90986
23.4007 -3.07246 -3.78679
18.8945 -2.4808 -3.49966
16.1359 -2.11861 -3.36843
14.3945 -1.88996 -3.34914
12.6342 -1.65883 -3.24502
11.2921 -1.48263 -3.17495
10.2031 -1.33964 -3.12028
9.3368 -1.2259 -3.09116
8.59956 -1.1291 -3.06604
7.95567 -1.04456 -3.04244
7.41974 -0.974193 -3.03498
6.93096 -0.910017 -3.02154
6.4775 -0.850478 -3.00156
6.0957 -0.800349 -2.99729
5.73234 -0.752642 -2.9833
5.3869 -0.707286 -2.96187
5.07245 -0.666 -2.94323
48.6382 -6.51564 -2.19765
24.9457 -3.34176 -1.66915
25.1373 -3.36743 -2.27534
25.7549 -3.45016 -2.94793
28.1612 -3.77252 -3.90235
23.3711 -3.13083 -3.78323
18.8568 -2.52609 -3.49374
16.1284 -2.16058 -3.36801
14.3895 -1.92764 -3.34914
12.6298 -1.6919 -3.24502
11.2825 -1.51142 -3.17329
10.1957 -1.36584 -3.11909
9.3392 -1.25109 -3.09308
8.6003 -1.15211 -3.06741
7.95845 -1.06612 -3.04462
7.41899 -0.993859 -3.03575
6.92856 -0.92816 -3.02154
6.47704 -0.867674 -3.00241
6.08649 -0.815355 -2.9937
5.7321 -0.767881 -2.98423
5.38503 -0.721387 -2.96187
5.07581 -0.679963 -2.94629
26.0776 -3.57682 -1.74979
25.5784 -3.50835 -2.31788
25.6927 -3.52403 -2.94189
27.9687 -3.83621 -3.87674
23.3494 -3.20262 -3.78128
18.8332 -2.58318 -3.49078
16.1215 -2.21124 -3.36801
14.3891 -1.97363 -3.35052
12.6129 -1.72999 -3.24198
11.2701 -1.54581 -3.17109
10.1914 -1.39786 -3.11909
9.33522 -1.28043 -3.09308
8.59105 -1.17836 -3.06536
7.94214 -1.08935 -3.03953
7.41218 -1.01666 -3.0342
6.9238 -0.949673 -3.02073
6.47786 -0.888509 -3.00413
6.0839 -0.834473 -2.9937
5.72616 -0.785405 -2.98236
5.38274 -0.738301 -2.96187
5.07024 -0.695438 -2.94425
25.7493 -3.61425 -1.12176
26.1116 -3.66511 -1.753
25.4391 -3.5707 -2.30581
25.5478 -3.58596 -2.92609
25.701 -3.60747 -3.55664
23.3314 -3.27487 -3.77998
18.7394 -2.63031 -3.47448
16.0641 -2.25481 -3.3572
14.1824 -1.99069 -3.30257
12.5997 -1.76853 -3.23996
11.2651 -1.58121 -3.17109
10.1794 -1.42881 -3.11671
9.3349 -1.31027 -3.09436
8.59103 -1.20586 -3.06672
7.94421 -1.11507 -3.04171
7.40346 -1.03917 -3.03189
6.91897 -0.971166 -3.01992
6.46967 -0.908101 -3.00156
6.08125 -0.853582 -2.9937
5.72542 -0.803636 -2.9833
5.37867 -0.754965 -2.96089
5.07314 -0.71208 -2.94731
25.6402 -3.67198 -1.1171
25.8149 -3.697 -1.73277
25.9001 -3.7092 -2.35021
26.0863 -3.73585 -2.99091
27.8317 -3.98583 -3.8606
23.3066 -3.33777 -3.77739
18.7164 -2.6804 -3.47152
15.9687 -2.2869 -3.33807
13.9707 -2.00076 -3.25323
12.589 -1.80289 -3.23844
11.2607 -1.61266 -3.17109
10.1735 -1.45696 -3.11612
9.33308 -1.33661 -3.095
8.58763 -1.22985 -3.06672
7.93738 -1.13672 -3.04026
7.40236 -1.0601 -3.03266
6.91985 -0.991002 -3.02154
6.47069 -0.926677 -3.00327
6.08592 -0.871574 -2.99729
5.7214 -0.819371 -2.98236
5.37309 -0.769488 -2.95893
5.06943 -0.726001 -2.94629
25.6734 -3.76365 -1.11925
25.5834 -3.75046 -1.71728
25.5449 -3.74481 -2.31788
25.6806 -3.76471 -2.94444
27.7811 -4.07264 -3.85531
23.27 -3.41132 -3.77318
18.7443 -2.74787 -3.47856
15.9126 -2.33275 -3.32768
13.8446 -2.02958 -3.22464
12.5868 -1.84519 -3.23945
11.2496 -1.64916 -3.16943
10.1724 -1.49124 -3.11731
9.31173 -1.36507 -3.08924
8.59094 -1.25941 -3.06946
7.93356 -1.16304 -3.04026
7.40428 -1.08545 -3.03498
6.91652 -1.01394 -3.02154
6.46221 -0.947343 -3.0007
6.07769 -0.890973 -2.9946
5.71865 -0.838339 -2.98236
5.37223 -0.787555 -2.95991
5.06189 -0.742059 -2.94323
25.726 -3.84478 -1.12223
25.8905 -3.86937 -1.73974
26.1862 -3.91355 -2.37938
25.6641 -3.83553 -2.94375
27.7363 -4.14522 -3.85058
23.233 -3.4722 -3.76864
18.7968 -2.80921 -3.49004
15.8383 -2.36705 -3.31312
13.8273 -2.06651 -3.22187
12.572 -1.8789 -3.23692
11.2392 -1.67971 -3.16778
10.1644 -1.51908 -3.11612
9.31725 -1.39247 -3.09244
8.58367 -1.28284 -3.06809
7.93397 -1.18574 -3.04171
7.39757 -1.10557 -3.03343
6.91005 -1.03271 -3.01992
6.46669 -0.966454 -3.00413
6.07518 -0.907942 -2.9946
5.71454 -0.854044 -2.98142
5.37691 -0.803584 -2.96383
5.0666 -0.757209 -2.94731
20.4678 -3.12105 -0.389891
20.5736 -3.13718 -0.879714
20.5753 -3.13745 -1.36459
20.5758 -3.13751 -1.85101
25.9845 -3.96227 -2.98301
27.72 -4.22691 -3.85002
23.207 -3.53874 -3.76604
18.7845 -2.86437 -3.4893
15.81 -2.41079 -3.30855
13.8173 -2.10694 -3.22095
12.5683 -1.91649 -3.23743
11.2247 -1.7116 -3.16502
10.1504 -1.54779 -3.11314
9.30558 -1.41897 -3.08988
8.58168 -1.30858 -3.06878
7.92673 -1.20871 -3.04026
7.39243 -1.12724 -3.03266
6.90154 -1.05239 -3.01748
6.46201 -0.985364 -3.00327
6.07423 -0.926232 -2.9955
5.71373 -0.871262 -2.98236
5.36933 -0.818746 -2.96089
5.04903 -0.769904 -2.93812
20.0836 -3.11988 -0.38107
20.1936 -3.13696 -0.862199
20.2826 -3.15079 -1.3445
20.3151 -3.15583 -1.82723
20.3574 -3.16241 -2.31839
20.3985 -3.16879 -2.8104
20.4239 -3.17274 -3.30497
18.8309 -2.92527 -3.49966
15.7819 -2.45163 -3.30398
13.7767 -2.14014 -3.21265
12.5629 -1.95158 -3.23743
11.2237 -1.74353 -3.16613
10.1479 -1.57642 -3.11373
9.29784 -1.44437 -3.0886
8.57057 -1.33139 -3.06604
7.92333 -1.23084 -3.04026
7.39108 -1.14816 -3.03343
6.90038 -1.07194 -3.01829
6.45745 -1.00313 -3.00241
6.06808 -0.942643 -2.9937
5.70953 -0.886943 -2.98142
5.37219 -0.83454 -2.96383
5.05366 -0.785057 -2.94221
19.694 -3.12628 -0.372158
19.8003 -3.14314 -0.844124
19.9095 -3.16048 -1.31883
19.9328 -3.16417 -1.79211
19.9741 -3.17073 -2.27426
20.0182 -3.17773 -2.75779
20.1073 -3.19188 -3.25407
18.8929 -2.9991 -3.51337
15.7563 -2.50119 -3.30023
13.7849 -2.18825 -3.21634
12.5487 -1.99201 -3.2354
11.2083 -1.77923 -3.16337
10.1426 -1.61007 -3.11373
9.28926 -1.4746 -3.08732
8.57353 -1.36098 -3.06878
7.91736 -1.25682 -3.03953
7.37994 -1.17151 -3.03035
6.904 -1.09596 -3.02154
6.45587 -1.02482 -3.00327
6.06845 -0.96332 -2.9955
5.71179 -0.906702 -2.98423
5.37112 -0.852623 -2.96481
5.04763 -0.801272 -2.94017
19.3319 -3.12416 -0.363848
19.4463 -3.14265 -0.82782
19.5323 -3.15654 -1.29275
19.5602 -3.16105 -1.75774
19.5788 -3.16406 -2.22849
19.6475 -3.17516 -2.7063
19.7281 -3.18819 -3.19246
18.8767 -3.05059 -3.51188
15.6546 -2.52989 -3.27986
13.7865 -2.22798 -3.21818
12.5412 -2.02674 -3.23489
11.1957 -1.8093 -3.16117
10.1287 -1.63686 -3.11075
9.28884 -1.50114 -3.0886
8.56042 -1.38342 -3.06536
7.9083 -1.27803 -3.03735
7.38029 -1.1927 -3.03189
6.8937 -1.11407 -3.01829
6.45298 -1.04284 -3.00327
6.06045 -0.979407 -2.9928
5.70749 -0.922367 -2.9833
5.36699 -0.867341 -2.96383
5.04028 -0.814541 -2.9371
18.9985 -3.13155 -0.356235
19.0776 -3.14459 -0.810864
19.2742 -3.177 -1.27517
19.4283 -3.20241 -1.74623
19.4159 -3.20036 -2.21037
19.3853 -3.19532 -2.67039
19.3753 -3.19366 -3.13539
18.8321 -3.10412 -3.50522
15.579 -2.56792 -3.26531
13.741 -2.26495 -3.20896
12.5329 -2.06581 -3.23439
11.19 -1.84446 -3.16117
10.1254 -1.66898 -3.11135
9.28595 -1.53062 -3.08924
8.55974 -1.41092 -3.06672
7.90425 -1.30287 -3.03735
7.37286 -1.21528 -3.03035
6.89377 -1.13631 -3.01992
6.44968 -1.06311 -3.00327
6.06439 -0.999605 -2.99639
5.70631 -0.940581 -2.98423
5.36768 -0.884764 -2.96579
5.05636 -0.833449 -2.94833
18.6395 -3.13256 -0.348018
18.7307 -3.14789 -0.794932
18.9297 -3.18133 -1.25145
19.0549 -3.20237 -1.71186
19.1178 -3.21294 -2.17622
19.1779 -3.22305 -2.64228
19.2367 -3.23293 -3.11399
18.7428 -3.14992 -3.49004
15.5188 -2.6081 -3.25408
13.7261 -2.30682 -3.20711
12.5206 -2.10421 -3.23287
11.1784 -1.87865 -3.15951
10.1201 -1.70078 -3.11135
9.27736 -1.55916 -3.08796
8.55526 -1.4378 -3.06672
7.90196 -1.32801 -3.03808
7.36719 -1.23813 -3.02958
6.88657 -1.15736 -3.01829
6.44809 -1.08367 -3.00413
6.05946 -1.01835 -2.9955
5.69984 -0.957918 -2.98236
5.35972 -0.900756 -2.96285
5.04693 -0.84819 -2.94425
18.3114 -3.13003 -0.340498
18.4048 -3.14598 -0.779932
18.5923 -3.17804 -1.22815
18.7279 -3.20121 -1.68176
18.7602 -3.20674 -2.13488
18.837 -3.21986 -2.59496
18.8833 -3.22778 -3.0566
18.4355 -3.15125 -3.43301
15.4903 -2.6478 -3.2495
13.6985 -2.34153 -3.20204
12.5032 -2.13721 -3.22983
11.1694 -1.90921 -3.15841
10.1209 -1.73 -3.11314
9.27297 -1.58506 -3.08796
8.54566 -1.46074 -3.06467
7.89454 -1.34944 -3.03662
7.36552 -1.25901 -3.03035
6.88691 -1.1772 -3.01992
6.44147 -1.10106 -3.00241
6.05483 -1.03497 -2.9946
5.70585 -0.975318 -2.98705
5.36234 -0.916601 -2.96579
5.04115 -0.8617 -2.94221
17.9903 -3.13333 -0.333163
18.0818 -3.14928 -0.765119
18.2638 -3.18097 -1.20555
18.4058 -3.2057 -1.65222
18.4408 -3.21181 -2.09817
18.5068 -3.22329 -2.54931
18.5503 -3.23088 -3.00278
18.1216 -3.1562 -3.37487
15.4722 -2.69477 -3.24742
13.7007 -2.38623 -3.20435
12.4869 -2.17482 -3.22729
11.1576 -1.9433 -3.15675
10.1042 -1.75982 -3.10956
9.26981 -1.61451 -3.0886
8.54103 -1.48758 -3.06467
7.89027 -1.37423 -3.03662
7.35971 -1.28183 -3.02958
6.87778 -1.19789 -3.01748
6.43976 -1.1216 -3.00327
6.05683 -1.05491 -2.99729
5.69406 -0.991724 -2.98236
5.356 -0.932845 -2.96383
5.03842 -0.877533 -2.94221
17.6861 -3.13127 -0.3262
17.774 -3.14683 -0.750958
17.9425 -3.17666 -1.18337
18.0928 -3.20328 -1.62342
18.1403 -3.21169 -2.06356
18.1876 -3.22006 -2.50505
18.2303 -3.22762 -2.9509
17.803 -3.15197 -3.31562
15.455 -2.73626 -3.24535
13.6825 -2.42244 -3.20158
12.4713 -2.208 -3.22476
11.1484 -1.97378 -3.15565
10.1011 -1.78837 -3.11016
9.25594 -1.63874 -3.0854
8.53129 -1.51044 -3.06262
7.88456 -1.39594 -3.0359
7.35247 -1.30173 -3.02804
6.878 -1.21773 -3.0191
6.44194 -1.14053 -3.00584
6.05914 -1.07275 -2.99998
5.69648 -1.00854 -2.98517
5.36367 -0.949621 -2.96971
5.0512 -0.894299 -2.95139
17.3776 -3.12986 -0.319144
17.4696 -3.14643 -0.736983
17.6561 -3.18002 -1.16369
17.7854 -3.20329 -1.59518
17.816 -3.20881 -2.02616
17.8759 -3.2196 -2.46191
17.9176 -3.22712 -2.90032
17.5112 -3.15392 -3.26156
15.4314 -2.77933 -3.24202
13.6523 -2.45889 -3.19605
12.457 -2.24362 -3.22274
11.1406 -2.00651 -3.1551
10.0845 -1.8163 -3.10658
9.24917 -1.66586 -3.08475
8.53787 -1.53774 -3.06672
7.87305 -1.418 -3.03299
7.35584 -1.32485 -3.03112
6.87436 -1.23813 -3.0191
6.43142 -1.15835 -3.00241
6.05945 -1.09136 -3.00178
5.6952 -1.02575 -2.98611
5.34882 -0.963368 -2.96285
5.02313 -0.904708 -2.93608
17.0963 -3.13468 -0.312738
17.1845 -3.15085 -0.723939
17.3419 -3.1797 -1.14207
17.4794 -3.20492 -1.56713
17.5205 -3.21246 -1.99224
17.5851 -3.22431 -2.42183
17.6182 -3.23036 -2.85201
17.2151 -3.15645 -3.20675
15.4803 -2.83838 -3.25449
13.6406 -2.50106 -3.19513
12.4404 -2.281 -3.2202
11.1285 -2.04046 -3.15345
10.0768 -1.84763 -3.10599
9.24016 -1.69422 -3.08347
8.52745 -1.56354 -3.06467
7.87772 -1.44441 -3.03662
7.34438 -1.34662 -3.02804
6.86505 -1.25873 -3.01666
6.42952 -1.17888 -3.00327
6.04896 -1.1091 -2.99819
5.68848 -1.043 -2.98423
5.35263 -0.981425 -2.96677
5.03549 -0.923276 -2.94527
16.8137 -3.13445 -0.306285
16.8943 -3.14947 -0.710616
17.0558 -3.17958 -1.1224
17.1899 -3.20458 -1.54056
17.2278 -3.21164 -1.95856
17.2776 -3.22093 -2.37924
17.3291 -3.23054 -2.80532
16.9351 -3.15709 -3.15491
15.5026 -2.89004 -3.26115
13.6408 -2.54295 -3.19697
12.4374 -2.31861 -3.22122
11.1224 -2.07347 -3.15345
10.0676 -1.87682 -3.1048
9.23137 -1.72094 -3.0822
8.51908 -1.58815 -3.06331
7.87157 -1.46744 -3.0359
7.34761 -1.36976 -3.03112
6.86487 -1.27977 -3.01829
6.42777 -1.19828 -3.00413
6.03862 -1.12573 -2.9946
5.68883 -1.06052 -2.98611
5.34798 -0.996983 -2.96579
5.03949 -0.939474 -2.94935
16.5445 -3.13808 -0.300158
16.6134 -3.15115 -0.697759
16.785 -3.1837 -1.10384
16.9176 -3.20885 -1.51567
16.9483 -3.21467 -1.9265
16.995 -3.22353 -2.34027
17.0513 -3.23421 -2.76057
16.6625 -3.16047 -3.10455
15.4781 -2.93581 -3.25782
13.6155 -2.58253 -3.19282
12.3958 -2.35118 -3.2121
11.1159 -2.1084 -3.15345
10.0597 -1.90808 -3.1042
9.22033 -1.74887 -3.08027
8.51774 -1.6156 -3.06467
7.86692 -1.49216 -3.0359
7.34145 -1.39249 -3.03035
6.85723 -1.30065 -3.01666
6.42398 -1.21847 -3.00413
6.04559 -1.1467 -2.99998
5.69067 -1.07938 -2.98893
5.34996 -1.01475 -2.96873
5.02806 -0.953699 -2.94425
16.2883 -3.13663 -0.294309
16.3515 -3.1488 -0.685741
16.5116 -3.17963 -1.08501
16.6387 -3.20411 -1.49003
16.6778 -3.21165 -1.89537
16.7234 -3.22042 -2.30269
16.7825 -3.23181 -2.71712
16.4008 -3.1583 -3.05604
15.4775 -2.9805 -3.25948
13.5968 -2.61833 -3.19005
12.3341 -2.37518 -3.19741
11.1043 -2.13835 -3.15179
10.0525 -1.9358 -3.1036
9.21541 -1.77461 -3.08027
8.51688 -1.64009 -3.06604
7.86089 -1.51377 -3.03517
7.33391 -1.41229 -3.02881
6.85177 -1.31944 -3.01585
6.42233 -1.23674 -3.00498
6.03885 -1.1629 -2.99819
5.6807 -1.09393 -2.98517
5.34368 -1.02903 -2.96677
5.02538 -0.967736 -2.94425
16.012 -3.13273 -0.287995
16.0813 -3.14628 -0.67335
16.2514 -3.17957 -1.06715
16.379 -3.20452 -1.46625
16.4129 -3.21115 -1.86494
16.4455 -3.21754 -2.26428
16.4998 -3.22816 -2.6714
16.1503 -3.15977 -3.00975
15.4417 -3.02115 -3.25366
13.6062 -2.66203 -3.1942
12.2833 -2.40322 -3.18576
11.0922 -2.17017 -3.15014
10.043 -1.96489 -3.10241
9.20081 -1.80012 -3.07707
8.5046 -1.66391 -3.06331
7.84905 -1.53565 -3.03226
7.32607 -1.43333 -3.02727
6.85142 -1.34047 -3.01748
6.4204 -1.25614 -3.00584
6.04063 -1.18184 -3.00088
5.68436 -1.11214 -2.98893
5.3406 -1.04488 -2.96677
5.02924 -0.983963 -2.94833
15.7738 -3.13187 -0.282564
15.8353 -3.1441 -0.662076
15.9998 -3.17676 -1.04985
16.1278 -3.20216 -1.44321
16.17 -3.21055 -1.83706
16.1917 -3.21485 -2.22921
16.2294 -3.22233 -2.62763
16.0315 -3.18304 -2.98864
15.4409 -3.06578 -3.25533
13.6101 -2.70229 -3.19697
12.2291 -2.42809 -3.1731
11.0786 -2.19964 -3.14793
10.0356 -1.99256 -3.10182
9.19761 -1.82618 -3.07771
8.50361 -1.68839 -3.06467
7.85022 -1.55866 -3.03444
7.33109 -1.45558 -3.03112
6.84944 -1.35995 -3.01829
6.41155 -1.27301 -3.00327
6.03381 -1.19801 -2.99909
5.67431 -1.12663 -2.98517
5.33595 -1.05945 -2.96579
5.02985 -0.998674 -2.95037
15.5326 -3.13474 -0.277086
15.5943 -3.14719 -0.651083
15.7492 -3.17846 -1.03269
15.8736 -3.20357 -1.41999
15.9145 -3.21182 -1.80779
15.9486 -3.21869 -2.19581
15.9986 -3.2288 -2.59067
15.8422 -3.19723 -2.95421
15.4005 -3.10808 -3.24867
13.6226 -2.74926 -3.20204
12.1892 -2.45999 -3.16449
11.0697 -2.23406 -3.14738
10.0311 -2.02445 -3.10241
9.18625 -1.85394 -3.07579
8.49458 -1.71435 -3.06331
7.84345 -1.58294 -3.03371
7.32105 -1.47751 -3.02881
6.83439 -1.37929 -3.01341
6.41284 -1.29422 -3.00584
6.03352 -1.21767 -3.00088
5.67766 -1.14585 -2.98893
5.3326 -1.07621 -2.96579
5.01825 -1.01277 -2.94527
15.2954 -3.13692 -0.271701
15.3573 -3.14961 -0.640275
15.5183 -3.18263 -1.01693
15.6275 -3.20501 -1.39751
15.6767 -3.2151 -1.78062
15.7017 -3.22023 -2.16185
15.739 -3.22789 -2.54884
15.5953 -3.19842 -2.90866
15.4156 -3.16156 -3.25408
13.6405 -2.79752 -3.2085
12.1454 -2.49089 -3.15487
11.0626 -2.26882 -3.14738
10.0154 -2.05404 -3.09943
9.18038 -1.88279 -3.07579
8.47811 -1.73876 -3.0592
7.83662 -1.6072 -3.03299
7.31637 -1.5005 -3.02881
6.83718 -1.40223 -3.01666
6.41405 -1.31545 -3.0084
6.03141 -1.23697 -3.00178
5.67577 -1.16403 -2.98987
5.3309 -1.09331 -2.96677
5.03021 -1.03164 -2.95445
15.018 -3.12649 0.090805
15.0688 -3.13705 -0.266548
15.1367 -3.15119 -0.630213
15.292 -3.18352 -1.00144
15.3976 -3.2055 -1.37652
15.4395 -3.21423 -1.75344
15.4594 -3.21837 -2.12845
15.511 -3.22912 -2.5122
15.3741 -3.20061 -2.86793
15.2433 -3.17339 -3.21873
13.636 -2.83878 -3.20942
12.1096 -2.521 -3.14727
11.0483 -2.30007 -3.14518
10.0167 -2.0853 -3.10182
9.1525 -1.90539 -3.06811
8.46187 -1.76161 -3.0551
7.83546 -1.63121 -3.03444
7.3155 -1.52296 -3.03035
6.82941 -1.42176 -3.01504
6.40127 -1.33263 -3.00413
6.02421 -1.25413 -2.99998
5.67056 -1.18051 -2.98893
5.33446 -1.11054 -2.97069
5.01703 -1.04446 -2.94833
14.8384 -3.13506 0.090805
14.8481 -3.13711 -0.261535
14.9103 -3.15024 -0.619872
15.0521 -3.18022 -0.984979
15.1639 -3.20384 -1.35515
15.2044 -3.21239 -1.72649
15.2385 -3.2196 -2.09811
15.2774 -3.22781 -2.47459
15.1472 -3.20031 -2.82608
15.0042 -3.17008 -3.16883
13.6408 -2.88204 -3.21265
12.0566 -2.54732 -3.13511
11.0358 -2.33165 -3.14352
10.0011 -2.11304 -3.09884
9.16719 -1.93684 -3.07515
8.45844 -1.7871 -3.05578
7.82876 -1.65406 -3.03371
7.30734 -1.5439 -3.02881
6.83052 -1.44315 -3.01748
6.39729 -1.35162 -3.00413
6.01697 -1.27127 -2.99819
5.6653 -1.19697 -2.98799
5.32432 -1.12492 -2.96677
5.01222 -1.05898 -2.94731
14.6251 -3.13803 0.090805
14.6368 -3.14054 -0.256753
14.6854 -3.15097 -0.609623
14.808 -3.17726 -0.968238
14.9279 -3.203 -1.3336
14.9709 -3.21222 -1.69977
15.0115 -3.22092 -2.06693
15.0549 -3.23025 -2.43892
14.9296 -3.20334 -2.78609
14.7837 -3.17206 -3.12309
13.6108 -2.92039 -3.20758
12.0201 -2.57909 -3.12751
11.0284 -2.36631 -3.14352
9.9963 -2.14485 -3.09943
9.15551 -1.96444 -3.07323
8.4436 -1.81169 -3.05236
7.82717 -1.67943 -3.03517
7.30246 -1.56684 -3.02881
6.8206 -1.46345 -3.01504
6.39124 -1.37133 -3.00327
6.01819 -1.29129 -3.00088
5.66497 -1.2155 -2.98987
5.32417 -1.14237 -2.96873
5.01055 -1.07508 -2.94833
14.4145 -3.13759 0.090805
14.4243 -3.13972 -0.251926
14.4828 -3.15246 -0.6004
14.5392 -3.16475 -0.949683
14.5506 -3.16723 -1.29849
14.5789 -3.17339 -1.65401
14.7019 -3.20015 -2.02379
14.8119 -3.22411 -2.39969
14.5858 -3.17489 -2.72166
14.5793 -3.17347 -3.08068
13.6097 -2.96241 -3.20942
11.9803 -2.60775 -3.1189
11.0176 -2.3982 -3.14242
9.98244 -2.17287 -3.09705
9.14593 -1.99079 -3.07195
8.43451 -1.83594 -3.05099
7.80941 -1.69987 -3.03008
7.29777 -1.5885 -3.02881
6.8198 -1.48446 -3.01666
6.38538 -1.3899 -3.00241
6.00385 -1.30686 -2.9955
5.65616 -1.23117 -2.98705
5.32757 -1.15965 -2.97265
5.02583 -1.09397 -2.95955
14.2011 -3.13012 0.090805
14.2285 -3.13616 -0.247469
14.2891 -3.14951 -0.591549
14.336 -3.15985 -0.935731
14.3459 -3.16202 -1.27972
14.3708 -3.16751 -1.63008
14.4033 -3.17469 -1.98204
14.4469 -3.18429 -2.33971
14.3241 -3.15722 -2.67278
14.3684 -3.16699 -3.0366
13.5943 -2.99636 -3.20758
11.9375 -2.63119 -3.10928
11.0038 -2.42538 -3.14022
9.97485 -2.19859 -3.09646
9.14069 -2.01473 -3.07195
8.42968 -1.85801 -3.05099
7.81403 -1.72232 -3.03371
7.29179 -1.60721 -3.02804
6.82124 -1.50349 -3.0191
6.39055 -1.40856 -3.00669
6.00565 -1.32372 -2.99819
5.65464 -1.24636 -2.98799
5.3177 -1.17209 -2.96873
5.01119 -1.10453 -2.95241
13.9936 -3.13306 0.090805
14.0269 -3.14052 -0.24292
14.0836 -3.15323 -0.582232
14.1366 -3.16509 -0.922199
14.1429 -3.1665 -1.26133
14.1605 -3.17044 -1.60616
14.2014 -3.17959 -1.95448
14.2418 -3.18863 -2.30696
14.1218 -3.16176 -2.63575
14.165 -3.17145 -2.9946
13.6184 -3.04907 -3.21588
11.9004 -2.66442 -3.10168
10.9901 -2.4606 -3.13856
9.9675 -2.23165 -3.09646
9.12841 -2.04379 -3.07003
8.41797 -1.88472 -3.04894
7.80464 -1.74741 -3.03226
7.28282 -1.63057 -3.0265
6.81087 -1.52491 -3.01666
6.38584 -1.42975 -3.00669
6.00994 -1.34559 -3.00268
5.65048 -1.2651 -2.98799
5.31209 -1.18934 -2.96775
5.01589 -1.12302 -2.95751
13.8048 -3.13383 0.090805
13.8322 -3.14007 -0.23851
13.8891 -3.15299 -0.573382
14.0824 -3.19687 -0.91899
14.0674 -3.19346 -1.25501
14.0387 -3.18694 -1.59268
14.0277 -3.18445 -1.93082
14.0436 -3.18805 -2.27518
13.9724 -3.17189 -2.60871
13.9667 -3.17059 -2.95344
13.5942 -3.08602 -3.21219
11.8585 -2.69201 -3.09257
10.9808 -2.49277 -3.13801
9.9627 -2.26164 -3.09705
9.11307 -2.06877 -3.06683
8.41234 -1.90969 -3.04894
7.79761 -1.77014 -3.03153
7.27975 -1.65258 -3.02727
6.80631 -1.54511 -3.01666
6.37628 -1.44748 -3.00413
5.99721 -1.36143 -2.99819
5.64842 -1.28225 -2.98893
5.30853 -1.2051 -2.96775
5.00918 -1.13714 -2.95547
13.6116 -3.13499 0.090805
13.643 -3.14222 -0.234239
13.7001 -3.15535 -0.56481
13.8779 -3.19631 -0.905038
13.9157 -3.20501 -1.24145
13.9009 -3.2016 -1.57735
13.9733 -3.21828 -1.92442
13.8451 -3.18875 -2.24341
13.9107 -3.20386 -2.59871
13.7755 -3.17274 -2.91393
13.5616 -3.12347 -3.20665
11.8311 -2.72491 -3.0875
10.9655 -2.52553 -3.13581
9.94252 -2.28993 -3.09288
9.1176 -2.09994 -3.07067
8.40081 -1.93485 -3.04689
7.78293 -1.79254 -3.02789
7.27632 -1.67586 -3.02804
6.80499 -1.5673 -3.01829
6.36994 -1.4671 -3.00327
5.99465 -1.38067 -2.99909
5.63748 -1.29841 -2.98517
5.30812 -1.22255 -2.96971
4.99385 -1.15017 -2.94833
13.4231 -3.13353 0.090805
13.4623 -3.14269 -0.230154
13.5097 -3.15375 -0.556146
13.5419 -3.16128 -0.8816
13.5532 -3.1639 -1.20764
13.5934 -3.17329 -1.54158
13.7206 -3.20299 -1.88935
13.6568 -3.18809 -2.21325
13.637 -3.18346 -2.54761
13.5908 -3.17268 -2.87568
13.594 -3.17343 -3.2168
11.7966 -2.75384 -3.08041
10.956 -2.55761 -3.13525
9.93196 -2.31855 -3.09169
9.10026 -2.1244 -3.06683
8.3932 -1.95934 -3.0462
7.78121 -1.81647 -3.02935
7.27131 -1.69744 -3.02804
6.79853 -1.58707 -3.01748
6.36556 -1.486 -3.00327
5.99575 -1.39967 -3.00178
5.64048 -1.31673 -2.98893
5.30107 -1.2375 -2.96775
4.99544 -1.16615 -2.95139
13.2503 -3.13467 0.090805
13.2837 -3.14257 -0.226115
13.3292 -3.15334 -0.547947
13.3597 -3.16056 -0.869184
13.3712 -3.16329 -1.1911
13.4061 -3.17153 -1.52021
13.4239 -3.17575 -1.84788
13.4744 -3.18771 -2.18407
13.3597 -3.16056 -2.49577
13.4081 -3.17201 -2.83784
13.4425 -3.18015 -3.18221
11.7752 -2.78571 -3.07686
10.9428 -2.58878 -3.1336
9.92318 -2.34757 -3.09109
9.09576 -2.15182 -3.06747
8.38369 -1.98337 -3.04484
7.77397 -1.83912 -3.02862
7.26984 -1.71986 -3.02958
6.79379 -1.60723 -3.01748
6.3576 -1.50405 -3.00156
5.98635 -1.41622 -2.99909
5.6314 -1.33224 -2.98611
5.29229 -1.25202 -2.96481
4.98694 -1.17978 -2.94833
13.1398 -3.14973 0.090805
13.1246 -3.14608 -0.222541
13.1508 -3.15236 -0.539841
13.1834 -3.16019 -0.857185
13.1933 -3.16257 -1.17494
13.2247 -3.17008 -1.49953
13.2507 -3.17632 -1.82422
13.2922 -3.18627 -2.15489
13.184 -3.16033 -2.46355
13.2293 -3.17119 -2.80083
13.2702 -3.181 -3.14256
11.7631 -2.81974 -3.07585
10.9257 -2.619 -3.13084
9.91617 -2.377 -3.09109
9.08565 -2.17792 -3.06619
8.37594 -2.00779 -3.04415
7.76667 -1.86174 -3.02789
7.26111 -1.74056 -3.02804
6.78721 -1.62696 -3.01666
6.35839 -1.52417 -3.00413
5.98733 -1.43522 -3.00178
5.63085 -1.34977 -2.98799
5.29364 -1.26893 -2.96775
4.98843 -1.19578 -2.95139
13.1237 -3.18223 0.090805
13.0949 -3.17525 -0.22203
13.0706 -3.16936 -0.536394
13.0607 -3.16696 -0.848954
13.0457 -3.16331 -1.16156
13.058 -3.16631 -1.48048
13.0653 -3.16806 -1.79861
13.115 -3.18013 -2.12636
13.0209 -3.15732 -2.43356
13.0594 -3.16663 -2.76549
13.0992 -3.17629 -3.1029
11.735 -2.84551 -3.07028
10.9151 -2.64669 -3.12974
9.9025 -2.40116 -3.08871
9.08176 -2.20214 -3.06683
8.37248 -2.03016 -3.04484
7.75633 -1.88075 -3.02571
7.25653 -1.75956 -3.02804
6.78293 -1.64472 -3.01666
6.35965 -1.54208 -3.00669
5.98008 -1.45005 -2.99998
5.62215 -1.36326 -2.98517
5.2886 -1.28238 -2.96677
4.9903 -1.21005 -2.95445
13.1098 -3.22249 0.090805
13.081 -3.21542 -0.221937
13.0664 -3.21184 -0.536674
13.0507 -3.20797 -0.848954
13.0395 -3.20523 -1.16194
13.0172 -3.19973 -1.47677
12.9783 -3.19018 -1.78747
12.9727 -3.18881 -2.10398
12.9346 -3.17944 -2.41875
12.9297 -3.17822 -2.73929
12.938 -3.18027 -3.06601
11.7411 -2.88605 -3.07433
10.8918 -2.67729 -3.12533
9.89305 -2.4318 -3.08811
9.07112 -2.22976 -3.06555
8.36424 -2.056 -3.04415
7.75401 -1.906 -3.02717
7.24917 -1.78191 -3.02727
6.78305 -1.66733 -3.0191
6.3495 -1.56076 -3.00413
5.97203 -1.46798 -2.99819
5.6247 -1.3826 -2.98893
5.28116 -1.29815 -2.96481
4.98481 -1.22531 -2.95343
13.1079 -3.26331 0.090805
13.0772 -3.25566 -0.222077
13.0626 -3.25204 -0.536953
13.0508 -3.24909 -0.849652
13.0319 -3.24438 -1.16212
13.0038 -3.23738 -1.4763
12.9688 -3.22868 -1.78747
12.9479 -3.22347 -2.10139
12.927 -3.21828 -2.41912
12.9183 -3.2161 -2.73887
12.902 -3.21206 -3.05956
11.7174 -2.91714 -3.07028
10.8838 -2.7096 -3.12533
9.88579 -2.46114 -3.08811
9.05895 -2.25529 -3.06363
8.3508 -2.07899 -3.04142
7.74108 -1.9272 -3.02426
7.24565 -1.80386 -3.02804
6.77276 -1.68613 -3.01666
6.34484 -1.5796 -3.00413
5.97111 -1.48655 -2.99998
5.62229 -1.39971 -2.98987
5.27898 -1.31424 -2.96579
4.98616 -1.24134 -2.95649
13.1053 -3.30643 0.090805
13.0824 -3.30064 -0.222448
13.0562 -3.29404 -0.53714
13.0483 -3.29203 -0.85021
13.0371 -3.28921 -1.16361
13.0012 -3.28016 -1.47723
12.9567 -3.26892 -1.7872
12.9492 -3.26703 -2.10333
12.9283 -3.26176 -2.42134
12.9176 -3.25906 -2.74095
12.8938 -3.25305 -3.06002
11.7288 -2.95914 -3.07585
10.8715 -2.74284 -3.12423
9.87246 -2.49078 -3.08633
9.04814 -2.28281 -3.06235
8.3497 -2.1066 -3.04347
7.7386 -1.95242 -3.02571
7.23279 -1.8248 -3.02495
6.77097 -1.70829 -3.01829
6.34335 -1.60041 -3.00584
5.97161 -1.50662 -3.00268
5.62129 -1.41823 -2.99174
5.28328 -1.33295 -2.97069
4.98056 -1.25658 -2.95547
13.0429 -3.3343 -0.221752
13.0536 -3.33702 -0.537512
13.0514 -3.33646 -0.851186
13.0305 -3.33113 -1.16398
12.9966 -3.32246 -1.47793
12.9579 -3.31255 -1.78887
12.9446 -3.30916 -2.10431
12.9256 -3.3043 -2.42282
12.9187 -3.30253 -2.74345
12.8929 -3.29595 -3.06232
11.7139 -2.99454 -3.07433
10.8479 -2.77317 -3.11982
9.86458 -2.52179 -3.08633
9.0446 -2.31216 -3.06363
8.33029 -2.12956 -3.03868
7.73063 -1.97626 -3.02498
7.23417 -1.84935 -3.02804
6.76734 -1.73001 -3.0191
6.32954 -1.61809 -3.00156
5.95992 -1.5236 -2.99909
5.61338 -1.43501 -2.98987
5.27737 -1.34911 -2.96971
4.97659 -1.27222 -2.95547
16.6069 -4.29792 0.090805
18.5925 -4.81182 -1.25215
12.984 -3.3603 -1.16045
12.9752 -3.35803 -1.47653
12.9556 -3.35297 -1.78998
12.9462 -3.35052 -2.10625
12.9272 -3.3456 -2.42504
12.9126 -3.34183 -2.74428
12.8906 -3.33614 -3.06417
11.6899 -3.0254 -3.07028
10.8359 -2.80438 -3.11872
9.84966 -2.54913 -3.08394
9.04687 -2.34136 -3.06683
8.3294 -2.15568 -3.04073
7.71571 -1.99686 -3.02135
7.21614 -1.86757 -3.02264
6.76571 -1.75099 -3.02073
6.32996 -1.63822 -3.00413
