# .PCD v0.7 - Point Cloud Data file format
VERSION 0.7
FIELDS x y z
SIZE 4 4 4
TYPE F F F
COUNT 1 1 1
WIDTH 1862
HEIGHT 1
VIEWPOINT 0 0 0 1 0 0 0
POINTS 1862
DATA ascii
-17.8938 14.218 -2.04144
-15.5045 12.3196 -2.22501
-12.6113 10.0207 -2.17299
-4.48712 3.56539 -0.850791
-4.50559 3.58006 -0.993446
-9.17458 7.28995 -2.39998
-8.43053 6.69874 -2.46056
-7.7983 6.19639 -2.51667
-4.49606 3.57248 -1.55585
-6.71757 5.33765 -2.58649
-6.23354 4.95305 -2.59946
-5.79598 4.60538 -2.60363
-5.3458 4.24767 -2.5754
-4.94585 3.92988 -2.5478
-4.4989 3.57474 -2.46757
-4.36769 3.47048 -2.54977
-4.11945 3.27324 -2.55203
-3.91961 3.11445 -2.5711
-3.705 2.94392 -2.56804
-3.53005 2.80491 -2.5831
-24.6053 19.6703 0.822177
-33.159 26.5084 -0.894818
-23.6895 18.9382 -1.32356
-21.0099 16.796 -1.79011
-17.8686 14.2848 -2.04348
-15.471 12.368 -2.22547
-12.5691 10.0482 -2.17076
-10.9755 8.77418 -2.21779
-10.0584 8.04099 -2.33543
-9.13763 7.30493 -2.39582
-4.46144 3.56662 -1.26258
-7.75268 6.19775 -2.50755
-7.19292 5.75026 -2.5498
-6.69126 5.34922 -2.58232
-6.23065 4.98099 -2.60458
-5.34044 4.26932 -2.39773
-4.84424 3.87264 -2.33097
-4.78426 3.8247 -2.46763
-4.49398 3.59264 -2.47082
-4.3376 3.46762 -2.53779
-4.11251 3.28768 -2.55383
-3.88829 3.10842 -2.55608
-3.69489 2.95382 -2.56706
-3.52037 2.8143 -2.58208
-25.4074 20.428 0.847709
-33.1519 26.6548 -0.896814
-23.6646 19.0268 -1.32524
-20.9769 16.8658 -1.79136
-17.8442 14.3471 -2.04534
-15.4364 12.4112 -2.22547
-12.5117 10.0596 -2.16547
-4.42191 3.55531 -0.841388
-10.0497 8.08013 -2.33876
-9.11415 7.32796 -2.39499
-8.39029 6.74596 -2.4601
-7.7474 6.22907 -2.51161
-7.16185 5.75828 -2.54429
-6.68522 5.37506 -2.5859
-6.20048 4.98531 -2.59754
-5.46031 4.3902 -2.4593
-5.29801 4.25971 -2.56376
-4.64987 3.73859 -2.40134
-4.44691 3.5754 -2.44967
-4.32931 3.48086 -2.53865
-4.06571 3.26891 -2.52959
-3.90299 3.13808 -2.57204
-3.67575 2.95538 -2.55922
-3.50982 2.82196 -2.58004
-25.0739 20.2899 1.59498
-24.5488 19.865 0.823988
-25.6966 20.7938 0.090805
-33.1395 26.8167 -0.89895
-23.7911 19.2519 -1.33642
-20.9346 16.9404 -1.79234
-17.8284 14.4269 -2.04887
-15.4066 12.4671 -2.22687
-12.4523 10.0765 -2.16046
-10.9585 8.86771 -2.22525
-4.38646 3.54955 -0.972338
-9.08652 7.35287 -2.39374
-8.37057 6.77351 -2.46056
-7.71727 6.24486 -2.50806
-7.16017 5.79405 -2.55035
-6.66534 5.39363 -2.58471
-6.2113 5.02622 -2.60906
-4.735 3.83159 -2.12617
-4.87041 3.94116 -2.3557
-4.86907 3.94009 -2.52545
-4.38452 3.54798 -2.42039
-4.33803 3.51036 -2.55063
-4.07765 3.29966 -2.54395
-3.90135 3.15699 -2.57767
-3.66374 2.96472 -2.55727
-3.50361 2.83514 -2.58208
-25.1442 20.4633 1.60262
-25.0717 20.4043 0.841303
-38.2436 31.1241 0.090805
-33.1234 26.9571 -0.900714
-23.7496 19.3283 -1.33716
-20.8873 16.9988 -1.79234
-17.8051 14.4904 -2.05091
-15.3809 12.5176 -2.22826
-12.3826 10.0775 -2.15294
-10.9261 8.89205 -2.22363
-4.35976 3.54814 -0.968265
-9.05533 7.36957 -2.39083
-8.37577 6.81652 -2.46794
-7.71481 6.2786 -2.51313
-7.12159 5.79582 -2.54208
-6.63248 5.39776 -2.57756
-6.20311 5.04833 -2.61162
-5.7359 4.66809 -2.60089
-5.32611 4.33459 -2.59068
-4.78935 3.89775 -2.48845
-4.41144 3.5902 -2.44154
-4.3212 3.51675 -2.54635
-4.06842 3.31103 -2.54395
-3.88704 3.16342 -2.57391
-3.6595 2.97824 -2.5602
-3.49701 2.846 -2.5831
-25.1025 20.5681 1.60421
-25.0549 20.5291 0.842835
-37.9916 31.129 0.090805
-33.1297 27.1453 -0.903592
-23.6653 19.3905 -1.33595
-20.8647 17.0958 -1.79541
-17.7738 14.5633 -2.05295
-15.3424 12.571 -2.22872
-12.392 10.1536 -2.16074
-10.9133 8.94199 -2.22719
-4.34341 3.55884 -0.967154
-9.04143 7.40824 -2.39374
-8.33807 6.83192 -2.46333
-7.68496 6.29679 -2.51009
-7.1291 5.84134 -2.55201
-6.63374 5.43546 -2.5853
-6.17315 5.05806 -2.60586
-5.02696 4.11892 -2.27461
-4.99611 4.09364 -2.43136
-4.95626 4.06099 -2.58557
-4.35853 3.57122 -2.41795
-4.29273 3.51732 -2.53608
-4.04636 3.31544 -2.53677
-3.86696 3.16845 -2.56734
-3.65635 2.99589 -2.5651
-3.49554 2.86412 -2.58922
-25.0079 20.6076 1.60197
-25.1595 20.7325 0.847709
-37.8089 31.1561 0.090805
-33.1047 27.2797 -0.905124
-23.6033 19.4502 -1.33549
-20.8354 17.1693 -1.79708
-15.3149 12.6202 -2.22989
-12.3881 10.2083 -2.16519
-10.8929 8.9762 -2.22817
-9.91977 8.17432 -2.33098
-4.33598 3.57304 -1.10344
-8.33247 6.86632 -2.46748
-7.65092 6.30469 -2.50452
-7.10534 5.85511 -2.54925
-4.39517 3.62181 -1.68632
-6.1473 5.06564 -2.60074
-5.70583 4.70185 -2.60021
-5.31391 4.37889 -2.59795
-4.54042 3.7415 -2.36665
-4.31611 3.55666 -2.39924
-4.27173 3.52009 -2.52923
-4.05777 3.34378 -2.55023
-3.85128 3.17362 -2.56265
-3.66546 3.0205 -2.57784
-3.48487 2.87168 -2.58718
-24.8901 20.6348 0.841442
-33.1037 27.4442 -0.907538
-23.5578 19.5303 -1.33623
-20.8181 17.259 -1.80015
-15.285 12.6719 -2.23105
-12.3547 10.2425 -2.16463
-10.8571 9.00092 -2.22622
-4.28199 3.54993 -0.957156
-8.98958 7.4527 -2.39125
-8.30457 6.8848 -2.46517
-7.64559 6.33848 -2.50907
-7.10422 5.88966 -2.55531
-6.58322 5.45773 -2.57756
-6.141 5.09112 -2.60458
-4.79915 3.97868 -2.17816
-4.58808 3.80369 -2.2364
-4.92995 4.08711 -2.58403
-4.30272 3.56712 -2.39761
-4.23065 3.50737 -2.51041
-4.03132 3.34212 -2.53946
-3.85409 3.19518 -2.5711
-3.64709 3.02357 -2.57098
-3.46574 2.87323 -2.57902
-24.4812 20.426 0.831044
-37.5288 31.3122 0.090805
-33.114 27.6287 -0.910462
-23.7756 19.8372 -1.35319
-20.7944 17.3499 -1.80294
-17.6297 14.7094 -2.05128
-15.2574 12.73 -2.23291
-12.3331 10.2902 -2.16658
-10.8409 9.0451 -2.22881
-9.84249 8.2121 -2.32432
-8.95561 7.47213 -2.38833
-8.28439 6.9121 -2.46564
-7.64941 6.3823 -2.51718
-7.06649 5.89594 -2.54815
-4.34218 3.6229 -1.6738
-6.09879 5.08853 -2.59306
-5.69576 4.75227 -2.6091
-5.08822 4.24537 -2.49683
-4.70878 3.92878 -2.47072
-4.26343 3.55721 -2.38134
-4.19324 3.49864 -2.49415
-4.02355 3.35705 -2.54126
-3.86437 3.22424 -2.58518
-3.64025 3.03725 -2.57294
-3.45273 2.88079 -2.57596
-24.2924 20.3837 0.827051
-25.7713 21.6247 0.090805
-33.0643 27.7442 -0.911298
-23.6956 19.883 -1.3517
-20.7673 17.4258 -1.8049
-17.6054 14.7727 -2.05333
-15.2233 12.7738 -2.23314
-12.3119 10.3309 -2.16797
-10.8065 9.06773 -2.22687
-4.23374 3.55253 -0.95049
-8.9467 7.50717 -2.39166
-8.26506 6.93521 -2.46564
-7.63304 6.40488 -2.51769
-7.07651 5.9379 -2.55807
-6.56095 5.50529 -2.58173
-6.09761 5.11651 -2.59882
-4.79274 4.02158 -2.18636
-4.84372 4.06436 -2.37825
-4.43908 3.72483 -2.32965
-4.25628 3.57145 -2.38297
-4.19453 3.51963 -2.501
-4.00183 3.35794 -2.53318
-3.84994 3.23048 -2.58143
-3.62374 3.04068 -2.56706
-3.44468 2.89043 -2.57596
-24.243 20.4797 0.827608
-37.4499 31.6364 0.090805
-33.0515 27.9208 -0.913712
-23.6478 19.9769 -1.35282
-20.7247 17.5075 -1.80629
-17.5882 14.858 -2.05723
-15.1854 12.8281 -2.23384
-12.2746 10.3691 -2.16742
-10.7583 9.08823 -2.22298
-9.77562 8.25812 -2.32025
-8.92026 7.53553 -2.39125
-8.2435 6.96384 -2.4661
-7.6088 6.42766 -2.51667
-4.19294 3.54206 -1.48308
-6.52953 5.51593 -2.57637
-6.09943 5.15259 -2.60714
-5.68242 4.80031 -2.61663
-5.28563 4.46512 -2.61105
-4.8017 4.05632 -2.5347
-4.24442 3.58554 -2.38297
-4.16213 3.51602 -2.48816
-3.98522 3.36658 -2.52959
-3.83786 3.24209 -2.58049
-3.63095 3.06731 -2.5798
-3.44427 2.9096 -2.5831
-24.1735 20.5369 0.827237
-37.4193 31.79 0.090805
-33.0466 28.0752 -0.91594
-23.6102 20.0584 -1.35393
-20.6878 17.5756 -1.80741
-17.5755 14.9315 -2.06076
-15.1631 12.882 -2.23593
-12.2365 10.3957 -2.16575
-10.7359 9.12079 -2.22363
-4.17901 3.55033 -0.942344
-8.88427 7.54775 -2.38709
-8.21364 6.97801 -2.46287
-7.56428 6.42633 -2.50755
-4.15667 3.53135 -1.47316
-6.50974 5.53043 -2.57458
-6.09079 5.17451 -2.6097
-5.11183 4.34282 -2.35053
-4.79467 4.07337 -2.36589
-4.77208 4.05418 -2.52467
-4.23021 3.59383 -2.38053
-4.15918 3.53349 -2.49244
-3.99214 3.39158 -2.54036
-3.8261 3.25051 -2.57861
-3.61706 3.07292 -2.57588
-3.44138 2.92367 -2.58718
-24.1803 20.6738 0.829419
-37.4302 32.0023 0.090805
-33.0236 28.2347 -0.917936
-23.7885 20.3389 -1.36875
-20.6568 17.6613 -1.80964
-17.5512 15.0061 -2.06354
-15.1241 12.9309 -2.23616
-12.2264 10.4534 -2.16992
-10.7207 9.16602 -2.22655
-9.75483 8.34025 -2.32728
-8.8739 7.58706 -2.39083
-8.19464 7.00631 -2.46379
-7.56464 6.46767 -2.51465
-7.02128 6.0031 -2.55807
-6.5141 5.56947 -2.58351
-4.15192 3.54984 -1.75499
-5.26386 4.50053 -2.42988
-5.2732 4.50851 -2.61832
-4.60923 3.94083 -2.44219
-4.17724 3.57148 -2.35612
-4.11096 3.51482 -2.46934
-3.96517 3.39017 -2.52959
-3.79707 3.24645 -2.56547
-3.59413 3.07294 -2.56608
-3.43348 2.93558 -2.5882
-24.08 20.7048 0.828119
-37.4195 32.1745 0.090805
-33.0037 28.3777 -0.919747
-23.7983 20.4625 -1.37285
-20.5817 17.6968 -1.80727
-17.5213 15.0654 -2.06503
-15.0819 12.9679 -2.23523
-12.2031 10.4926 -2.17104
-10.6995 9.19978 -2.22752
-4.11614 3.53919 -0.931975
-4.16823 3.58398 -1.07766
-8.16471 7.02028 -2.46056
-7.54068 6.48372 -2.51262
-7.01032 6.0277 -2.56027
-6.52168 5.60755 -2.59305
-6.05998 5.21057 -2.6097
-4.68981 4.03245 -2.16037
-4.35934 3.7483 -2.15419
-4.82909 4.15221 -2.56938
-4.16032 3.57718 -2.35206
-4.08194 3.50978 -2.45736
-3.96653 3.41055 -2.53677
-3.7813 3.25128 -2.56077
-3.59347 3.08978 -2.57196
-3.42397 2.94404 -2.58718
-32.9904 28.5369 -0.921928
-23.6604 20.4664 -1.3681
-20.5608 17.7852 -1.8102
-17.4705 15.1121 -2.06429
-15.0449 13.0139 -2.23546
-12.1794 10.5353 -2.17243
-10.6751 9.23407 -2.22817
-9.66798 8.36286 -2.31765
-8.81969 7.62909 -2.38792
-8.1409 7.04193 -2.45964
-7.53019 6.51366 -2.51566
-6.9924 6.04847 -2.56027
-6.49058 5.61439 -2.58709
-6.04163 5.22604 -2.60842
-5.64295 4.88119 -2.62484
-4.86108 4.20486 -2.41899
-4.45665 3.85503 -2.37051
-4.15522 3.59429 -2.35531
-4.05373 3.5065 -2.44623
-3.97667 3.43984 -2.55023
-3.76229 3.2544 -2.5542
-3.58956 3.10499 -2.57588
-3.40481 2.94518 -2.57902
-32.976 28.7061 -0.924249
-23.5839 20.5301 -1.36735
-20.4852 17.8327 -1.80838
-17.441 15.1826 -2.06652
-15.0144 13.0702 -2.23709
-12.1522 10.5787 -2.17354
-10.652 9.27274 -2.22946
-4.04997 3.52556 -0.920866
-4.1197 3.58626 -1.07017
-4.06451 3.53821 -1.18603
-7.5024 6.53094 -2.51313
-6.98352 6.07924 -2.56413
-6.48011 5.64102 -2.59007
-6.01375 5.23505 -2.6033
-5.46457 4.75698 -2.54617
-4.58226 3.98892 -2.2815
-4.89412 4.26039 -2.61949
-4.12875 3.59413 -2.34636
-4.05224 3.52753 -2.45222
-3.96719 3.45349 -2.55113
-3.76137 3.27432 -2.56077
-3.57848 3.11511 -2.5749
-3.39554 2.95586 -2.57902
-32.9629 28.867 -0.926478
-24.9192 21.8228 -1.4539
-20.4367 17.8973 -1.8088
-17.4019 15.2395 -2.06726
-14.986 13.1239 -2.23871
-12.1268 10.6199 -2.17466
-10.6304 9.30951 -2.23076
-9.64925 8.45025 -2.3258
-8.76557 7.67638 -2.38584
-8.11384 7.10563 -2.46471
-7.48881 6.55826 -2.51515
-6.95533 6.09107 -2.56027
-4.06329 3.55839 -1.59457
-6.00532 5.25911 -2.6065
-5.61727 4.91928 -2.62689
-5.0189 4.39526 -2.51429
-4.90228 4.29313 -2.63105
-4.17854 3.65932 -2.38215
-4.07168 3.56574 -2.47105
-3.93541 3.4464 -2.53677
-3.75828 3.29128 -2.56547
-3.56266 3.11997 -2.57
-3.38416 2.96366 -2.57698
-32.9471 29.0365 -0.928799
-23.9182 21.0793 -1.39595
-20.3819 17.9627 -1.80894
-17.3673 15.306 -2.06893
-14.9536 13.1788 -2.24011
-12.0904 10.6553 -2.1741
-10.5819 9.32589 -2.22655
-3.9915 3.51774 -0.911608
-8.7238 7.68836 -2.38085
-4.0107 3.53466 -1.17589
-3.99754 3.52306 -1.3041
-6.92606 6.10399 -2.55642
-6.46988 5.70196 -2.60019
-4.04842 3.56791 -1.73258
-5.59615 4.93193 -2.62415
-4.52147 3.98481 -2.26259
-4.02067 3.54345 -2.14773
-4.14509 3.65311 -2.36914
-4.01028 3.53429 -2.43939
-3.91652 3.45166 -2.53138
-3.7466 3.30191 -2.56453
-3.54761 3.12654 -2.56608
-3.37613 2.97541 -2.578
-32.9033 29.1616 -0.929959
-23.6305 20.9433 -1.3817
-20.3406 18.0275 -1.80978
-17.3558 15.3822 -2.07283
-14.9287 13.231 -2.24197
-12.0887 10.714 -2.17939
-10.5573 9.35672 -2.22687
-9.58275 8.49302 -2.32173
-8.71401 7.72307 -2.38418
-8.07007 7.15236 -2.46425
-7.457 6.609 -2.51769
-6.9133 6.12714 -2.55807
-6.44107 5.70861 -2.59483
-5.98109 5.30093 -2.6097
-4.95365 4.39034 -2.31839
-4.58283 4.06168 -2.30042
-4.4389 3.93412 -2.38669
-4.39331 3.89371 -2.52289
-3.98145 3.52869 -2.42741
-3.90419 3.46021 -2.52959
-3.73868 3.31353 -2.56547
-3.54669 3.14337 -2.57196
-3.37296 2.98939 -2.58208
-32.8906 29.3353 -0.93242
-23.5557 21.0095 -1.38114
-20.3032 18.1086 -1.81159
-17.3149 15.4432 -2.07376
-14.9122 13.3003 -2.24592
-12.0727 10.7678 -2.18273
-10.5322 9.39378 -2.22784
-9.54869 8.51655 -2.31988
-8.69554 7.75561 -2.38584
-8.02723 7.15954 -2.4578
-3.96357 3.53513 -1.29954
-6.89545 6.1501 -2.55862
-6.43166 5.73644 -2.59841
-5.95875 5.31465 -2.60714
-5.58782 4.98382 -2.63441
-4.98715 4.44807 -2.51866
-4.05053 3.6127 -2.17625
-4.3156 3.84912 -2.48384
-3.8921 3.47139 -2.37778
-3.8813 3.46176 -2.52151
-3.72957 3.32643 -2.5664
-3.52769 3.14637 -2.5651
-3.3597 2.99654 -2.57902
-32.8808 29.5022 -0.934834
-23.5126 21.0966 -1.38235
-20.3058 18.2194 -1.81689
-17.2927 15.5158 -2.07674
-14.8269 13.3034 -2.23871
-12.0452 10.8075 -2.18356
-10.5337 9.45135 -2.23433
-3.91029 3.5085 -0.899018
-8.67686 7.7853 -2.38709
-8.00885 7.18593 -2.45872
-7.40209 6.64151 -2.51262
-6.87718 6.17054 -2.55862
-6.42455 5.76442 -2.60258
-3.97984 3.5709 -1.71593
-5.03306 4.5159 -2.37037
-5.10843 4.58353 -2.58922
-4.83924 4.342 -2.62488
-4.25793 3.82042 -2.45618
-3.85622 3.45999 -2.36152
-3.84573 3.45058 -2.50445
-3.71311 3.33159 -2.56171
-3.49498 3.13586 -2.54747
-3.35335 3.00879 -2.58106
-32.8361 29.6385 -0.93618
-23.7465 21.434 -1.40098
-20.231 18.2608 -1.81494
-17.2628 15.5817 -2.07878
-14.7726 13.334 -2.23639
-12.0336 10.8618 -2.18746
-10.5085 9.4852 -2.23498
-3.90132 3.52141 -0.899388
-8.66824 7.82412 -2.39125
-7.98605 7.20836 -2.45826
-7.37804 6.65956 -2.5111
-3.90323 3.52313 -1.41693
-6.406 5.78218 -2.60198
-5.93133 5.35373 -2.60906
-5.54699 5.00682 -2.62894
-5.16811 4.66483 -2.62778
-4.36466 3.93962 -2.36511
-4.09195 3.69347 -2.36344
-3.89961 3.51986 -2.39575
-3.85007 3.47515 -2.51433
-3.69535 3.33549 -2.55608
-3.49342 3.15323 -2.55335
-3.34952 3.02334 -2.58514
-28.2054 25.593 0.090805
-28.1578 25.5498 -0.791948
-23.603 21.4169 -1.39549
-20.1979 18.3272 -1.81634
-17.2397 15.6429 -2.08101
-14.7729 13.4047 -2.24197
-12.036 10.9212 -2.1933
-10.4778 9.50738 -2.23368
-3.88627 3.52632 -0.897907
-3.88851 3.52836 -1.02527
-3.90719 3.54531 -1.15929
-7.37061 6.68795 -2.51465
-6.83406 6.2011 -2.55531
-6.38802 5.79636 -2.60079
-5.91028 5.36287 -2.60586
-4.30767 3.9087 -2.0263
-4.87856 4.42671 -2.48156
-4.36663 3.9622 -2.37205
-4.02273 3.65015 -2.32765
-3.88101 3.52156 -2.38976
-3.83302 3.47801 -2.50894
-3.68006 3.33922 -2.55138
-3.49161 3.16822 -2.55824
-3.34032 3.03094 -2.58412
-28.1129 25.6796 0.090805
-23.5584 21.5193 -1.39716
-20.1355 18.3927 -1.8162
-17.1965 15.7081 -2.08212
-14.7416 13.4657 -2.24406
-11.9777 10.941 -2.18913
-10.4623 9.55671 -2.23725
-9.46291 8.64385 -2.32395
-8.60866 7.86354 -2.3875
-7.92733 7.24118 -2.45319
-7.34982 6.71366 -2.51515
-3.85528 3.52159 -1.40646
-3.86524 3.53068 -1.54274
-3.90592 3.56785 -1.69673
-5.13281 4.68854 -2.43946
-5.15271 4.70672 -2.63433
-4.42432 4.04138 -2.41213
-4.03759 3.68812 -2.34392
-3.86798 3.53319 -2.3889
-3.81487 3.48467 -2.50445
-3.67679 3.35855 -2.55701
-3.4901 3.18802 -2.5651
-3.32136 3.03388 -2.57698
-27.9896 25.7107 0.090805
-23.6394 21.7147 -1.40611
-20.0973 18.461 -1.81745
-17.1702 15.7722 -2.08435
-14.6996 13.5027 -2.24336
-11.9209 10.9503 -2.18412
-10.4414 9.59123 -2.23854
-3.84294 3.53005 -0.892353
-8.59531 7.89549 -2.39
-7.91997 7.27514 -2.45734
-7.33104 6.73416 -2.51515
-6.78756 6.23493 -2.55201
-6.35108 5.83399 -2.60019
-3.90432 3.58643 -1.70057
-4.37091 4.01504 -2.06939
-4.15856 3.81998 -2.11418
-4.80988 4.41826 -2.63722
-4.28158 3.93298 -2.49767
-3.82348 3.51218 -2.36666
-3.80249 3.49289 -2.50266
-3.6739 3.37478 -2.56171
-3.49017 3.20601 -2.57196
-3.3116 3.04198 -2.57596
-23.7477 21.9599 -1.41757
-20.0506 18.5411 -1.81885
-17.1295 15.8399 -2.08584
-14.6518 13.5487 -2.24289
-11.8932 10.9978 -2.18579
-10.4109 9.62714 -2.23887
-9.40704 8.69882 -2.32321
-8.57052 7.92528 -2.39041
-7.89724 7.30269 -2.4578
-7.31577 6.765 -2.51769
-6.76967 6.26001 -2.55311
-3.82958 3.54127 -1.53678
-5.8706 5.42863 -2.61098
-5.51527 5.10005 -2.6433
-5.05411 4.67361 -2.59723
-4.76675 4.40788 -2.62103
-4.18937 3.87397 -2.44967
-3.80783 3.52116 -2.36409
-3.79351 3.50791 -2.50445
-3.67695 3.40013 -2.57204
-3.4744 3.21283 -2.56804
-3.30276 3.05411 -2.57698
-38.9523 36.2347 0.090805
-23.6137 21.9663 -1.41319
-20.032 18.6345 -1.82234
-17.1043 15.911 -2.08862
-14.5912 13.5732 -2.23964
-11.8533 11.0263 -2.1844
-10.3809 9.65665 -2.23854
-9.38551 8.73071 -2.32432
-3.7743 3.51098 -1.00489
-7.87838 7.32874 -2.45872
-7.28859 6.78009 -2.51515
-6.77359 6.30102 -2.56193
-6.31011 5.86988 -2.59841
-5.85169 5.44344 -2.6097
-5.47947 5.09719 -2.63304
-4.72648 4.39673 -2.42991
-4.35368 4.04994 -2.39286
-4.11365 3.82665 -2.41063
-3.79737 3.53244 -2.36409
-3.75691 3.49481 -2.4865
-3.66943 3.41343 -2.57391
-3.46741 3.2255 -2.57
-3.29746 3.06741 -2.58004
-38.7117 36.2258 0.090805
-23.509 21.9994 -1.41067
-19.9766 18.6938 -1.82234
-17.0686 15.9725 -2.09011
-14.5436 13.6096 -2.23848
-11.8017 11.0439 -2.18078
-10.358 9.6928 -2.23984
-9.37391 8.77195 -2.32802
-8.52048 7.97333 -2.38958
-7.83529 7.33213 -2.4518
-7.27126 6.80433 -2.51616
-6.76048 6.32634 -2.56413
-6.27036 5.8677 -2.58888
-5.86318 5.48667 -2.62251
-5.42727 5.07875 -2.61457
-5.12014 4.79135 -2.64742
-4.78497 4.4777 -2.64647
-4.28104 4.00613 -2.51963
-3.75651 3.51528 -2.34441
-3.7387 3.49861 -2.48111
-3.65284 3.41827 -2.56922
-3.45018 3.22862 -2.56412
-3.29463 3.08306 -2.58514
-38.473 36.2171 0.090805
-23.5673 22.1854 -1.41859
-17.0357 16.0368 -2.09197
-14.561 13.7072 -2.24777
-11.7473 11.0585 -2.1766
-10.3363 9.73025 -2.24146
-9.35357 8.80512 -2.3295
-3.73203 3.5132 -0.998652
-7.82909 7.37002 -2.45688
-3.72343 3.50511 -1.24788
-6.73188 6.33715 -2.56027
-6.26126 5.89413 -2.59245
-5.83033 5.48846 -2.61482
-5.41629 5.0987 -2.61663
-4.27301 4.02246 -2.20075
-4.2382 3.98969 -2.34044
-4.40749 4.14905 -2.60423
-3.7566 3.53633 -2.35126
-3.7283 3.50969 -2.48111
-3.62854 3.41578 -2.55889
-3.43297 3.23168 -2.55824
-3.28421 3.09164 -2.58412
-38.2318 36.2046 0.090805
-23.674 22.4187 -1.42968
-17.001 16.0996 -2.09364
-14.539 13.7681 -2.25079
-11.7087 11.0878 -2.17549
-10.3289 9.78123 -2.24632
-9.31884 8.82472 -2.32728
-8.4858 8.03585 -2.39332
-7.82979 7.41463 -2.46425
-7.23357 6.85002 -2.51718
-6.71724 6.36106 -2.56193
-6.26731 5.935 -2.60258
-5.83328 5.52397 -2.62379
-5.4257 5.13801 -2.62894
-4.84678 4.58979 -2.51575
-4.77038 4.51743 -2.65341
-4.27709 4.0503 -2.53183
-3.74477 3.54621 -2.3504
-3.701 3.50476 -2.46944
-3.58505 3.39496 -2.53448
-3.44109 3.25863 -2.57196
-3.27378 3.10019 -2.5831
-37.9939 36.1937 0.090805
-23.5322 22.4172 -1.42483
-16.9705 16.1664 -2.09587
-14.5067 13.8194 -2.25219
-11.6585 11.1061 -2.17215
-10.3084 9.82 -2.24827
-9.30115 8.86046 -2.3295
-8.44209 8.04211 -2.3875
-3.73549 3.55851 -1.13162
-7.18659 6.84609 -2.50755
-3.70134 3.52597 -1.37503
-6.25106 5.95488 -2.60317
-5.82235 5.54648 -2.62635
-5.41451 5.15797 -2.63099
-5.09618 4.85472 -2.65761
-4.60329 4.38518 -2.56476
-4.01767 3.82731 -2.37971
-3.71853 3.54235 -2.34013
-3.68023 3.50586 -2.46226
-3.60053 3.42994 -2.55326
-3.43267 3.27003 -2.57294
-3.27204 3.11701 -2.58922
-37.7833 36.2202 0.090805
-23.4184 22.4496 -1.42204
-16.9282 16.2279 -2.09699
-14.446 13.8484 -2.2494
-11.6221 11.1413 -2.17187
-10.296 9.87009 -2.25249
-9.25483 8.87196 -2.32469
-8.39137 8.04422 -2.38002
-7.78155 7.45963 -2.46333
-7.17064 6.87399 -2.50958
-6.68242 6.40597 -2.56358
-6.25162 5.99299 -2.61151
-5.79122 5.55164 -2.61995
-5.41456 5.19056 -2.6392
-4.03191 3.86511 -2.09017
-4.60015 4.40984 -2.57093
-4.11642 3.94612 -2.44805
-3.6865 3.53399 -2.32644
-3.64727 3.49638 -2.447
-3.61014 3.46079 -2.56828
-3.42741 3.28562 -2.57686
-3.25975 3.12489 -2.58718
-37.6704 36.3144 0.090805
-23.3987 22.5565 -1.42483
-16.89 16.282 -2.09791
-14.3916 13.8735 -2.24684
-11.5767 11.16 -2.16909
-10.2727 9.90292 -2.25346
-9.23002 8.89777 -2.32469
-8.38436 8.08256 -2.38459
-7.76208 7.48268 -2.46379
-7.15141 6.89399 -2.50958
-6.65066 6.41126 -2.55807
-3.66312 3.53126 -1.49687
-3.65857 3.52688 -1.6263
-5.3784 5.18479 -2.62825
-5.04582 4.86419 -2.64597
-4.26495 4.11143 -2.38361
-4.13564 3.98677 -2.46676
-3.67792 3.54553 -2.3273
-3.64521 3.514 -2.45239
-3.56868 3.44022 -2.54481
-3.39814 3.27582 -2.56118
-3.2572 3.13995 -2.59228
-37.5188 36.3964 0.090805
-23.6102 22.9039 -1.44319
-16.8616 16.3572 -2.10089
-14.3336 13.9048 -2.24452
-11.5316 11.1867 -2.16714
-10.2656 9.9585 -2.25897
-9.21612 8.94041 -2.32839
-3.61289 3.5048 -0.979109
-3.6765 3.56651 -1.12286
-7.11167 6.89891 -2.503
-6.65395 6.45488 -2.56744
-6.21183 6.02599 -2.60973
-5.77177 5.5991 -2.62635
-5.34859 5.18858 -2.62141
-4.7029 4.56221 -2.46773
-3.89172 3.77529 -2.17394
-4.10473 3.98193 -2.45537
-3.68104 3.57091 -2.33671
-3.63544 3.52668 -2.45328
-3.54898 3.4428 -2.53824
-3.39659 3.29498 -2.56804
-3.23991 3.14298 -2.58616
-37.4508 36.5467 0.090805
-23.4793 22.9125 -1.43909
-16.8472 16.4405 -2.10535
-14.3094 13.9639 -2.24731
-11.5097 11.2319 -2.16937
-10.2445 9.99719 -2.26091
-9.18815 8.96634 -2.32802
-8.36284 8.16095 -2.39291
-7.69255 7.50685 -2.45595
-7.09947 6.92809 -2.50603
-6.63201 6.47191 -2.56634
-6.18026 6.03106 -2.60377
-3.62204 3.5346 -1.61926
-5.34393 5.21493 -2.62689
-5.02801 4.90663 -2.65252
-4.71921 4.60528 -2.66343
-4.3845 4.27866 -2.63677
-3.66008 3.57172 -2.32986
-3.61217 3.52496 -2.44431
-3.52105 3.43605 -2.52509
-3.40178 3.31965 -2.5798
-3.22565 3.14778 -2.58208
-37.4 36.7272 0.090805
-23.4385 23.0169 -1.44114
-16.7856 16.4836 -2.10405
-14.2725 14.0158 -2.24847
-11.4603 11.2541 -2.16658
-10.2046 10.021 -2.25897
-9.16695 9.00205 -2.32987
-8.32738 8.17759 -2.39
-3.62132 3.55618 -1.11179
-3.57818 3.51381 -1.22205
-6.60479 6.48598 -2.56358
-6.17082 6.05982 -2.60794
-5.73476 5.6316 -2.62507
-5.32216 5.22642 -2.62415
-5.02188 4.93154 -2.65761
-4.34393 4.26579 -2.45222
-3.65405 3.58832 -2.18936
-3.63981 3.57433 -2.32387
-3.61255 3.54757 -2.45239
-3.52914 3.46566 -2.53918
-3.40377 3.34254 -2.58959
-3.2182 3.16031 -2.58412
-37.367 36.9004 0.090805
-24.0053 23.7055 -1.4825
-16.7636 16.5542 -2.1072
-14.2008 14.0235 -2.24313
-11.4513 11.3083 -2.17104
-10.2075 10.08 -2.2661
-9.14038 9.02623 -2.3295
-8.31426 8.21043 -2.39291
-7.6631 7.56741 -2.46102
-7.08302 6.99456 -2.51515
-6.59623 6.51385 -2.56744
-6.16067 6.08373 -2.61092
-5.71496 5.64359 -2.62315
-5.29952 5.23334 -2.62005
-4.33071 4.27663 -2.28587
-4.69705 4.63839 -2.66651
-4.03142 3.98108 -2.43178
-3.60023 3.55527 -2.30419
-3.57338 3.52876 -2.43174
-3.51945 3.4755 -2.53918
-3.3969 3.35448 -2.59155
-3.21058 3.17049 -2.58514
-37.3417 37.1078 0.090805
-23.6827 23.5344 -1.4662
-16.7454 16.6405 -2.11166
-14.0848 13.9966 -2.23128
-11.4045 11.3331 -2.16881
-10.1925 10.1287 -2.26999
-9.12173 9.0646 -2.33209
-8.29675 8.24478 -2.3954
-7.62273 7.57498 -2.45549
-7.07473 7.03042 -2.52022
-3.51696 3.49494 -1.33093
-3.54949 3.52726 -1.47065
-5.67704 5.64149 -2.61354
-5.29905 5.26586 -2.62825
-5.00442 4.97307 -2.66415
-4.64056 4.6115 -2.64184
-3.69619 3.67304 -2.22922
-3.57237 3.55 -2.29307
-3.55214 3.52989 -2.42456
-3.49473 3.47285 -2.52885
-3.38017 3.35899 -2.58665
-3.20427 3.1842 -2.5882
-23.4673 23.4591 -1.4566
-16.7156 16.7098 -2.11426
-14.0559 14.051 -2.23337
-11.3708 11.3669 -2.16881
-10.1555 10.1519 -2.26837
-9.09758 9.0944 -2.33284
-8.25288 8.25 -2.38958
-7.61123 7.60857 -2.45918
-7.03605 7.0336 -2.51363
-3.4957 3.49448 -1.32652
-6.12609 6.12395 -2.61211
-5.6911 5.68912 -2.62827
-5.28473 5.28289 -2.62894
-4.51136 4.50979 -2.40008
-3.87247 3.87112 -2.1963
-4.12204 4.1206 -2.50418
-3.61552 3.61426 -2.32901
-3.53406 3.53283 -2.41917
-3.47193 3.47072 -2.51946
-3.37388 3.37271 -2.58959
-3.1875 3.18639 -2.58208
-23.4173 23.5484 -1.45791
-16.673 16.7664 -2.11519
-13.9483 14.0264 -2.22245
-11.298 11.3612 -2.16102
-10.1309 10.1876 -2.26967
-9.07333 9.12414 -2.33358
-8.2394 8.28555 -2.39291
-7.56804 7.61042 -2.45226
-7.00015 7.03935 -2.50806
-3.49345 3.51302 -1.32983
-6.09981 6.13398 -2.60854
-3.48575 3.50527 -1.57957
-5.25711 5.28655 -2.62278
-4.28121 4.30519 -2.28005
-4.65866 4.68475 -2.66882
-4.15488 4.17815 -2.53265
-3.56144 3.58139 -2.29992
-3.5034 3.52302 -2.40481
-3.45663 3.47599 -2.5157
-3.36755 3.38641 -2.59253
-3.17076 3.18852 -2.57596
-23.6465 23.9288 -1.47803
-16.6371 16.8357 -2.11742
-13.8344 13.9995 -2.21084
-11.2441 11.3784 -2.1574
-10.1057 10.2264 -2.27129
-9.05843 9.16658 -2.33728
-8.20783 8.30583 -2.39125
-7.56461 7.65492 -2.45918
-6.97256 7.05581 -2.50603
-6.52291 6.60079 -2.5702
-6.0832 6.15583 -2.60973
-5.65092 5.71838 -2.62571
-5.26425 5.3271 -2.6351
-4.16814 4.21791 -2.22476
-4.33649 4.38826 -2.48613
-3.50346 3.54529 -2.12835
-3.48537 3.52698 -2.25628
-3.49357 3.53528 -2.40571
-3.44942 3.4906 -2.51852
-3.35567 3.39573 -2.59155
-3.16314 3.20091 -2.578
-23.5096 23.9319 -1.47365
-19.3826 19.7308 -1.84326
-16.6135 16.912 -2.12095
-13.7301 13.9767 -2.20038
-11.2131 11.4145 -2.15795
-10.074 10.2549 -2.27097
-9.03257 9.19482 -2.33765
-8.18041 8.32735 -2.39041
-7.52959 7.66484 -2.45503
-6.94752 7.07232 -2.50452
-6.50869 6.6256 -2.5724
-6.06758 6.17657 -2.61092
-5.64056 5.74188 -2.62891
-4.12498 4.19908 -2.05161
-3.66863 3.73453 -1.95341
-4.2937 4.37083 -2.4684
-4.25732 4.3338 -2.61399
-3.47742 3.53989 -2.25799
-3.47305 3.53543 -2.39852
-3.4341 3.49578 -2.51476
-3.34191 3.40194 -2.58861
-3.1452 3.20169 -2.57086
-23.4148 23.9773 -1.47207
-19.377 19.8425 -1.84857
-16.5911 16.9897 -2.12467
-13.7205 14.0501 -2.20573
-11.2151 11.4846 -2.16519
-10.0532 10.2947 -2.27324
-8.98328 9.19908 -2.33173
-8.17207 8.36838 -2.3954
-7.52449 7.70525 -2.46102
-6.94949 7.11644 -2.51313
-6.46617 6.6215 -2.56303
-3.43746 3.52003 -1.44444
-5.61423 5.7491 -2.62443
-5.23649 5.36228 -2.63715
-4.92401 5.0423 -2.66124
-4.61209 4.72288 -2.66651
-3.99808 4.09412 -2.45699
-3.43533 3.51786 -2.2366
-3.45255 3.53549 -2.39134
-3.41137 3.49332 -2.50537
-3.32937 3.40935 -2.58665
-3.14049 3.21593 -2.57494
-23.5607 24.2534 -1.48604
-19.3069 19.8745 -1.84675
-16.5646 17.0516 -2.12708
-13.6491 14.0504 -2.19992
-11.1975 11.5267 -2.1677
-10.0385 10.3337 -2.27616
-8.94547 9.20847 -2.32802
-3.3901 3.48976 -0.943348
-7.50429 7.72492 -2.46102
-6.92005 7.1235 -2.50907
-6.4622 6.65219 -2.56854
-6.03299 6.21036 -2.61092
-5.62293 5.78825 -2.63595
-5.19886 5.35171 -2.62484
-4.9004 5.04448 -2.65543
-3.65713 3.76465 -2.10148
-4.32726 4.45448 -2.67419
-3.65032 3.75764 -2.3889
-3.46446 3.56631 -2.4066
-3.4096 3.50984 -2.51101
-3.2694 3.36553 -2.54551
-3.14045 3.23278 -2.58208
-25.1334 26.0446 0.090805
-23.6675 24.5255 -1.49862
-19.2644 19.9628 -1.84912
-16.5273 17.1265 -2.12968
-13.5817 14.0741 -2.19643
-11.1812 11.5865 -2.17215
-10.0056 10.3683 -2.27648
-8.89987 9.22253 -2.32395
-8.12227 8.41673 -2.3954
-7.4908 7.76237 -2.46517
-6.91654 7.1673 -2.51667
-6.43744 6.67082 -2.56744
-6.01369 6.23171 -2.61151
-3.38538 3.50811 -1.55652
-5.20588 5.39461 -2.63783
-4.8733 5.04998 -2.64961
-4.097 4.24554 -2.37359
-4.30866 4.46486 -2.67175
-3.71943 3.85427 -2.44452
-3.46378 3.58936 -2.41468
-3.38936 3.51223 -2.50443
-3.25581 3.37384 -2.54355
-3.12254 3.23575 -2.57596
-25.4124 26.4813 0.94292
-25.0647 26.119 0.090805
-23.4149 24.3998 -1.48623
-19.2279 20.0367 -1.85108
-16.4905 17.1841 -2.13117
-13.5259 14.0948 -2.19365
-11.1282 11.5963 -2.16797
-9.9643 10.3834 -2.27356
-8.86456 9.23742 -2.32136
-8.07435 8.41397 -2.38792
-7.46505 7.77904 -2.46379
-6.91258 7.20333 -2.52275
-6.41213 6.68184 -2.56468
-5.99758 6.24986 -2.61211
-5.5796 5.81428 -2.63211
-5.1986 5.41727 -2.64194
-4.87337 5.07835 -2.65761
-4.12602 4.29957 -2.39826
-3.61304 3.76501 -2.23247
-3.92143 4.08638 -2.58998
-3.42652 3.57065 -2.39493
-3.38687 3.52933 -2.51007
-3.27655 3.41437 -2.56804
-3.10516 3.23577 -2.56882
-25.0857 26.315 0.934889
-23.4814 24.632 -1.4962
-19.1875 20.1278 -1.85373
-16.4609 17.2675 -2.13489
-13.4256 14.0835 -2.18459
-11.1075 11.6518 -2.17159
-9.92709 10.4136 -2.27291
-8.85422 9.2881 -2.32691
-3.32466 3.48758 -0.933368
-7.45264 7.81784 -2.4684
-6.89132 7.22902 -2.52376
-6.39922 6.7128 -2.56854
-5.98078 6.27386 -2.6139
-5.54982 5.82178 -2.62699
-5.17931 5.43311 -2.64125
-4.84879 5.08639 -2.65324
-4.57525 4.79945 -2.67884
-4.29013 4.50036 -2.67745
-3.96773 4.16216 -2.63106
-3.3863 3.55224 -2.37429
-3.35565 3.52009 -2.49504
-3.26521 3.42522 -2.56804
-3.09797 3.24978 -2.57188
-25.1547 26.5446 0.939856
-23.5799 24.8828 -1.50785
-19.1401 20.1977 -1.85498
-16.4329 17.3409 -2.13804
-13.3578 14.0959 -2.18017
-11.0946 11.7077 -2.17605
-9.9233 10.4716 -2.2794
-8.84555 9.33431 -2.33209
-8.06438 8.50998 -2.40123
-7.43744 7.84839 -2.47117
-6.86585 7.24522 -2.52224
-6.36209 6.71362 -2.56138
-3.32777 3.51164 -1.41882
-3.313 3.49606 -1.53667
-5.16834 5.45392 -2.64399
-4.82086 5.08723 -2.64597
-4.55845 4.81033 -2.6773
-3.90978 4.12582 -2.43991
-3.51022 3.70417 -2.32473
-3.36222 3.548 -2.36441
-3.31118 3.49414 -2.46875
-3.25743 3.43742 -2.57
-3.09778 3.26895 -2.58004
-25.0868 26.6308 0.940227
-23.4868 24.9323 -1.50654
-19.0869 20.2616 -1.85568
-16.3964 17.4055 -2.14009
-13.2178 14.0313 -2.16345
-11.0761 11.7578 -2.17939
-9.90301 10.5125 -2.28199
-8.83533 9.37911 -2.33691
-8.03373 8.52817 -2.39956
-3.29472 3.49749 -1.0477
-6.86024 7.28246 -2.52832
-6.34082 6.73107 -2.56083
-5.94344 6.30924 -2.6139
-5.53337 5.87392 -2.63595
-5.15471 5.47196 -2.64536
-4.82746 5.12457 -2.65833
-3.84817 4.08501 -2.25334
-3.67452 3.90067 -2.29511
-3.97271 4.21722 -2.65159
-3.31124 3.51503 -2.33479
-3.28022 3.4821 -2.45279
-3.24602 3.4458 -2.56902
-3.09279 3.28313 -2.58412
-25.4737 27.2028 0.956057
-25.173 26.8816 0.090805
-23.3458 24.9305 -1.50198
-19.0758 20.3706 -1.8607
-16.3569 17.4671 -2.14176
-13.1571 14.0502 -2.1602
-11.0453 11.795 -2.18022
-9.88392 10.5548 -2.28491
-8.8115 9.40958 -2.33802
-8.02578 8.57053 -2.40497
-3.25639 3.47743 -1.03801
-6.83331 7.29713 -2.5263
-6.32082 6.74985 -2.56083
-5.91556 6.31709 -2.60973
-5.50814 5.88202 -2.63211
-3.26163 3.48302 -1.64597
-4.79186 5.11711 -2.64669
-4.52856 4.83594 -2.67653
-4.10378 4.38233 -2.58227
-3.7736 4.02974 -2.52239
-3.26292 3.4844 -2.30696
-3.25901 3.48022 -2.44434
-3.22983 3.44905 -2.56412
-3.09009 3.29983 -2.59024
-25.2696 27.1553 0.952018
-23.4702 25.2216 -1.51586
-19.0117 20.4304 -1.8607
-16.2802 17.4951 -2.13879
-13.0642 14.0391 -2.15183
-11.0244 11.847 -2.18356
-9.84265 10.5771 -2.28296
-8.79528 9.45161 -2.34172
-8.00814 8.60573 -2.40788
-7.35 7.89847 -2.46564
-6.81563 7.32423 -2.52832
-3.24147 3.48336 -1.2736
-5.89439 6.33424 -2.60913
-5.50384 5.91455 -2.63915
-5.14552 5.52949 -2.65835
-3.26422 3.5078 -1.78027
-4.48443 4.81907 -2.6588
-3.26851 3.51242 -2.04538
-3.24247 3.48444 -2.16215
-3.24222 3.48416 -2.29978
-3.23723 3.4788 -2.43589
-3.20353 3.44259 -2.55139
-3.07385 3.30322 -2.58514
-25.1401 27.1773 0.950347
-23.4617 25.363 -1.52042
-18.9741 20.5116 -1.86307
-16.2012 17.5141 -2.13507
-13.0144 14.069 -2.15044
-10.9932 11.884 -2.1844
-9.81122 10.6063 -2.28296
-8.80056 9.51373 -2.35098
-7.97859 8.62514 -2.40663
-7.3371 7.93168 -2.46932
-6.80701 7.35862 -2.53339
-6.26772 6.77564 -2.55586
-5.88335 6.36011 -2.61271
-5.49012 5.93503 -2.64107
-5.10867 5.52266 -2.64741
-3.2247 3.48602 -1.76354
-3.22821 3.48981 -1.89489
-3.24071 3.50332 -2.03399
-3.22598 3.48741 -2.15788
-3.23551 3.4977 -2.30247
-3.22809 3.48969 -2.43683
-3.15779 3.41368 -2.522
-3.06637 3.31486 -2.58718
-25.0668 27.2504 0.95044
-23.3719 25.4078 -1.51912
-18.9275 20.5763 -1.86419
-16.1415 17.5476 -2.13359
-12.7276 13.8363 -2.1077
-10.9626 11.9176 -2.18495
-9.79626 10.6496 -2.28653
-8.78062 9.5455 -2.35283
-7.97566 8.67043 -2.41328
-7.32942 7.96789 -2.4744
-6.7825 7.37333 -2.53187
-6.23576 6.77896 -2.55035
-3.21197 3.49177 -1.38963
-3.21331 3.49322 -1.51298
-3.20506 3.48425 -1.63229
-3.20991 3.48953 -1.76063
-3.19221 3.47029 -1.87871
-3.2272 3.50832 -2.03155
-3.20889 3.48842 -2.15274
-3.21363 3.49357 -2.29349
-3.19443 3.4727 -2.41805
-3.14588 3.41992 -2.52004
-3.05011 3.31581 -2.58106
-25.1564 27.5208 0.956475
-25.2212 27.5917 0.090805
-23.3593 25.5548 -1.52378
-18.8789 20.6533 -1.86586
-16.0889 17.6011 -2.13396
-12.6331 13.8205 -2.09887
-10.9398 11.9681 -2.18802
-9.75077 10.6672 -2.28361
-8.72141 9.54113 -2.34469
-7.93386 8.67956 -2.40871
-7.28859 7.97364 -2.46886
-3.19168 3.49166 -1.14759
-3.18569 3.48511 -1.26313
-3.20614 3.50748 -1.39202
-3.1742 3.47253 -1.4989
-3.18522 3.48459 -1.6275
-3.19893 3.49959 -1.76063
-3.18378 3.48303 -1.88025
-3.22356 3.52654 -2.03643
-3.21011 3.51182 -2.1613
-3.12667 3.42055 -2.23694
-3.16801 3.46577 -2.40584
-3.14688 3.44266 -2.52983
-3.04896 3.33553 -2.58922
-24.8017 27.295 0.947051
-24.9846 27.4962 -0.771755
-23.2968 25.6388 -1.52471
-18.8484 20.7432 -1.86907
-16.0527 17.6665 -2.13619
-12.5707 13.8344 -2.09515
-10.903 11.999 -2.18774
-9.74164 10.721 -2.28912
-8.69835 9.57278 -2.34617
-3.16928 3.48788 -0.910914
-3.17766 3.4971 -1.02879
-3.16439 3.4825 -1.14101
-3.15077 3.46751 -1.25265
-3.19186 3.51274 -1.39023
-3.16133 3.47913 -1.49761
-3.18877 3.50933 -1.63503
-3.18979 3.51045 -1.76135
-3.17344 3.49246 -1.88025
-3.18851 3.50904 -2.02016
-3.16685 3.48521 -2.1382
-3.15738 3.47478 -2.26746
-3.1399 3.45555 -2.39176
-3.1132 3.42617 -2.51024
-3.03096 3.33565 -2.58208
-24.7185 27.3757 0.947144
-25.0374 27.7289 -0.776582
-23.2135 25.7089 -1.52452
-18.8032 20.8245 -1.87117
-16.0225 17.7449 -2.13972
-12.5125 13.8576 -2.0926
-10.8546 12.0214 -2.18551
-9.70659 10.75 -2.2888
-8.66033 9.59131 -2.34395
-3.14651 3.48476 -0.907171
-3.13275 3.46951 -1.0168
-3.15343 3.49242 -1.14101
-3.136 3.47311 -1.251
-3.19489 3.53834 -1.39678
-3.16181 3.5017 -1.50338
-3.16765 3.50817 -1.62956
-3.16251 3.50248 -1.7519
-4.40541 4.87899 -2.65495
-3.45174 3.8228 -2.20238
-3.168 3.50856 -2.14675
-3.16081 3.5006 -2.27823
-3.11246 3.44705 -2.37861
-3.08957 3.4217 -2.49946
-3.01931 3.34388 -2.58106
-24.7253 27.5471 0.950208
-24.8014 27.632 0.090805
-23.1932 25.8401 -1.52843
-18.7653 20.907 -1.87368
-15.9671 17.7894 -2.13934
-12.4674 13.8903 -2.0919
-10.8321 12.0683 -2.18829
-9.68651 10.792 -2.29172
-8.64759 9.63451 -2.34839
-3.13354 3.49116 -0.906339
-3.13154 3.48893 -1.02003
-3.15598 3.51616 -1.14607
-3.12439 3.48097 -1.25045
-3.16652 3.52791 -1.38844
-3.12483 3.48146 -1.48993
-5.0365 5.6113 -2.65356
-3.13219 3.48966 -1.74026
-3.7647 4.19435 -2.26336
-4.17509 4.65157 -2.69209
-3.451 3.84485 -2.35468
-3.1337 3.49134 -2.26566
-3.0916 3.44444 -2.37017
-3.08523 3.43734 -2.50436
-3.00593 3.34898 -2.578
-23.1103 25.8929 -1.52769
-18.7388 20.995 -1.87702
-15.9293 17.8473 -2.14102
-12.4338 13.9309 -2.09283
-10.7997 12.1 -2.18857
-9.65371 10.8161 -2.29107
-8.63897 9.67915 -2.35357
-3.1316 3.50866 -0.908834
-3.11271 3.4875 -1.0168
-3.13455 3.51197 -1.14152
-3.05961 3.42801 -1.22674
-3.10581 3.47976 -1.36461
-3.10879 3.4831 -1.48673
-5.02957 5.63516 -2.65835
-4.70536 5.27191 -2.66852
-3.78615 4.24202 -2.28417
-4.16573 4.6673 -2.69453
-3.21636 3.60362 -2.19552
-3.10966 3.48408 -2.25489
-3.09138 3.4636 -2.37768
-3.06865 3.43813 -2.49848
-3.00115 3.3625 -2.58208
-24.0533 27.1205 0.932428
-24.6171 27.7562 0.090805
-23.0394 25.9773 -1.52843
-18.6687 21.0493 -1.87661
-15.8824 17.9077 -2.14232
-12.3795 13.9581 -2.09097
-10.7748 12.1487 -2.19136
-9.61314 10.839 -2.28945
-8.61765 9.71654 -2.35616
-7.15389 8.06612 -2.46379
-6.63087 7.4764 -2.52528
-6.14103 6.92411 -2.56303
-5.72099 6.45051 -2.5996
-5.36085 6.04445 -2.63915
-5.00685 5.64531 -2.65562
-4.68013 5.27691 -2.66343
-3.74954 4.22767 -2.26952
-3.42849 3.86568 -2.2097
-3.30937 3.73137 -2.26997
-3.10226 3.49784 -2.25758
-3.08986 3.48386 -2.38519
-3.04974 3.43863 -2.49163
-2.99399 3.37577 -2.58514
-24.0079 27.222 0.933496
-25.0528 28.4068 0.090805
-24.6956 28.0018 -0.776025
-23.0117 26.0925 -1.5316
-18.6574 21.1552 -1.88163
-15.8718 17.9967 -2.14789
-12.3391 13.9911 -2.09074
-10.7539 12.1936 -2.19414
-9.57761 10.8598 -2.28815
-8.56318 9.70961 -2.34839
-7.77033 8.81061 -2.40621
-7.17382 8.13423 -2.47901
-6.63044 7.51811 -2.53339
-6.12676 6.947 -2.56524
-5.71432 6.47934 -2.60496
-5.34646 6.06224 -2.64043
-5.01345 5.68464 -2.66793
-4.65674 5.28018 -2.65833
-4.13932 4.69349 -2.52313
-3.9736 4.50558 -2.5839
-3.617 4.10123 -2.49757
-3.08302 3.49577 -2.2504
-3.05092 3.45937 -2.36171
-3.02628 3.43144 -2.47987
-2.9891 3.38928 -2.58922
-23.7146 27.0699 0.926347
-22.9461 26.1927 -1.53309
-18.6016 21.2335 -1.88316
-15.816 18.0538 -2.14845
-12.277 14.014 -2.08795
-10.7251 12.2426 -2.19664
-9.55585 10.9079 -2.29172
-8.52835 9.73499 -2.34765
-7.73721 8.83192 -2.40497
-7.1327 8.14188 -2.47394
-6.61057 7.54588 -2.53541
-6.09229 6.95426 -2.56027
-3.06971 3.50403 -1.36282
-5.31884 6.07138 -2.63659
-4.97599 5.68003 -2.65767
-4.64658 5.304 -2.6627
-4.39006 5.01119 -2.69195
-3.72627 4.25349 -2.4269
-3.35084 3.82494 -2.31617
-3.06552 3.49925 -2.24591
-3.02314 3.45087 -2.34857
-3.00569 3.43096 -2.47203
-2.97785 3.39918 -2.58922
-24.3126 27.9094 0.950161
-22.8913 26.2778 -1.5344
-18.5409 21.2838 -1.88302
-15.7695 18.1024 -2.149
-12.2443 14.0557 -2.08911
-10.7065 12.2904 -2.19998
-9.52665 10.936 -2.29204
-8.50629 9.7647 -2.34913
-7.71123 8.85201 -2.40455
-7.12527 8.17937 -2.47947
-6.5882 7.56285 -2.53491
-6.088 6.98864 -2.56689
-5.69219 6.53428 -2.6133
-5.30684 6.09193 -2.63915
-4.96752 5.7024 -2.66177
-4.64398 5.33101 -2.66997
-4.04633 4.64494 -2.48228
-3.22473 3.70179 -2.095
-3.83529 4.40268 -2.67298
-3.04165 3.49163 -2.23514
-2.99957 3.44332 -2.3373
-2.98121 3.42225 -2.4593
-2.95818 3.3958 -2.58004
-24.1201 27.8647 0.946448
-22.8491 26.3964 -1.53729
-18.5144 21.3887 -1.88735
-15.7242 18.1654 -2.15068
-12.2001 14.0941 -2.08911
-10.6717 12.3285 -2.20082
-9.48837 10.9614 -2.29107
-8.46143 9.77503 -2.34506
-7.6885 8.88211 -2.40621
-7.0868 8.187 -2.47486
-6.55175 7.56888 -2.52984
-6.07104 7.01355 -2.56909
-5.67788 6.55935 -2.61628
-3.01214 3.47976 -1.46432
-4.93851 5.70519 -2.65562
-4.62112 5.33853 -2.66634
-4.35541 5.03158 -2.68886
-3.96643 4.58221 -2.60749
-3.56944 4.12358 -2.49073
-3.03652 3.50792 -2.23963
-2.98643 3.45006 -2.33542
-2.97615 3.43819 -2.4642
-2.95988 3.41939 -2.59126
-24.1443 28.0604 0.950254
-22.8098 26.5095 -1.54008
-18.4951 21.495 -1.89209
-15.6755 18.218 -2.15142
-12.1893 14.1664 -2.09469
-10.6442 12.3706 -2.20277
-9.49571 11.0359 -2.30112
-8.42982 9.79711 -2.34431
-7.67232 8.91675 -2.40954
-7.07644 8.22422 -2.47993
-6.5444 7.60588 -2.53592
-6.04895 7.03007 -2.56854
-3.011 3.49938 -1.34972
-2.99686 3.48294 -1.46176
-4.93627 5.73691 -2.66383
-3.00131 3.48812 -1.70607
-4.3525 5.05846 -2.69657
-3.54288 4.11752 -2.32765
-3.27422 3.80529 -2.28537
-2.99462 3.48034 -2.21539
-2.9589 3.43882 -2.32134
-2.9557 3.43511 -2.45538
-2.94523 3.42294 -2.58718
-24.6378 28.7962 0.97068
-24.1126 28.1824 0.090805
-22.7786 26.6232 -1.54316
-18.4506 21.5648 -1.89377
-15.6362 18.2753 -2.15309
-12.1471 14.1973 -2.09422
-10.6147 12.4063 -2.20388
-9.44946 11.0444 -2.29723
-8.44204 9.86691 -2.3558
-7.65757 8.95003 -2.41287
-7.05598 8.2469 -2.48085
-6.53949 7.64324 -2.5425
-6.0268 7.04402 -2.56744
-5.63753 6.58904 -2.61509
-5.25733 6.14468 -2.64171
-4.90801 5.7364 -2.65699
-4.60361 5.38062 -2.67434
-4.06721 4.75369 -2.52236
-3.19284 3.73174 -2.09581
-3.28238 3.83639 -2.29906
-2.95584 3.45474 -2.19295
-2.9378 3.43366 -2.31195
-2.9461 3.44335 -2.45538
-2.92336 3.41677 -2.57596
-22.716 26.729 -1.54502
-15.5884 18.3422 -2.15495
-12.1077 14.2466 -2.09562
-10.5774 12.446 -2.20472
-9.39744 11.0576 -2.29334
-8.40418 9.88886 -2.35431
-7.61518 8.96047 -2.40871
-7.02355 8.26433 -2.47901
-2.97201 3.49704 -1.11062
-6.00465 7.06543 -2.56799
-5.61564 6.6077 -2.61509
-5.22466 6.14764 -2.63531
-2.95139 3.47278 -1.56799
-4.57368 5.38166 -2.66706
-4.1076 4.83324 -2.55859
-4.06903 4.78787 -2.70673
-3.32349 3.91062 -2.33842
-3.03233 3.56802 -2.26118
-2.93669 3.45549 -2.3204
-2.93241 3.45044 -2.45342
-2.90533 3.41858 -2.56984
-24.3233 28.7828 0.965713
-22.68 26.8381 -1.54781
-15.5423 18.3918 -2.15569
-12.0691 14.2819 -2.09585
-10.5566 12.4921 -2.20778
-9.39583 11.1185 -2.3008
-8.37907 9.91529 -2.35505
-7.59518 8.98768 -2.41037
-7.01301 8.29877 -2.48362
-6.48019 7.66827 -2.53744
-5.96628 7.06014 -2.55972
-2.95016 3.49104 -1.33542
-5.18056 6.13037 -2.62123
-4.88743 5.7835 -2.66519
-4.53819 5.37023 -2.6547
-4.29658 5.08432 -2.68964
-3.92121 4.64012 -2.61399
-3.3674 3.98478 -2.37864
-2.9889 3.53689 -2.23514
-2.9202 3.45558 -2.31477
-2.91826 3.45329 -2.4495
-2.88578 3.41486 -2.56066
-22.6418 26.9643 -1.55117
-15.4946 18.4527 -2.15718
-12.0625 14.3654 -2.10282
-10.5441 12.557 -2.21362
-9.37227 11.1615 -2.30371
-8.33903 9.93103 -2.35246
-7.55306 8.99501 -2.4058
-6.97939 8.31182 -2.48085
-6.45607 7.68859 -2.53744
-5.95273 7.08916 -2.56358
-5.57388 6.63798 -2.6139
-5.18687 6.17709 -2.63467
-4.8777 5.8089 -2.66998
-4.52968 5.39444 -2.65979
-4.02425 4.79252 -2.52313
-3.2839 3.91083 -2.18285
-3.55364 4.23207 -2.52495
-2.95709 3.52162 -2.21898
-2.92522 3.48367 -2.32791
-2.90291 3.4571 -2.44558
-2.87393 3.42259 -2.55964
-22.5959 27.0627 -1.55331
-15.4571 18.5127 -2.15922
-12.0109 14.3853 -2.10073
-10.5141 12.5925 -2.21474
-9.34739 11.1952 -2.30534
-8.33268 9.97993 -2.35876
-7.55801 9.05211 -2.41578
-6.98734 8.36863 -2.49238
-6.43457 7.70659 -2.53744
-5.92798 7.09985 -2.56138
-5.56266 6.66232 -2.61747
-5.15867 6.17846 -2.62891
-4.84701 5.80518 -2.66177
-4.53132 5.42709 -2.66997
-4.26397 5.10689 -2.68809
-4.00953 4.80215 -2.69453
-3.68316 4.41127 -2.62935
-2.91746 3.4942 -2.19564
-2.9234 3.50132 -2.33448
-2.88877 3.45984 -2.44166
-2.85444 3.41872 -2.55045
-23.7522 28.6299 0.954479
-22.5528 27.1843 -1.55638
-15.4078 18.5719 -2.16052
-11.9796 14.4398 -2.10328
-10.4858 12.6392 -2.21724
-9.3147 11.2276 -2.30599
-8.3289 10.0393 -2.3669
-7.55701 9.10893 -2.42493
-6.95604 8.38454 -2.49054
-6.41774 7.7357 -2.54048
-5.89951 7.11104 -2.55862
-5.51976 6.65331 -2.60675
-5.12713 6.18005 -2.62251
-4.84794 5.84352 -2.67272
-4.52495 5.45421 -2.67652
-4.24202 5.11316 -2.68424
-3.99209 4.81191 -2.6929
-3.42343 4.12648 -2.44709
-2.91217 3.51022 -2.20013
-2.88307 3.47515 -2.31007
-2.88457 3.47695 -2.44754
-2.82721 3.40781 -2.53515
-23.5921 28.6093 0.95174
-22.5115 27.2989 -1.55927
-15.3577 18.6237 -2.16127
-11.9329 14.4707 -2.10258
-10.471 12.6978 -2.22225
-9.26 11.2293 -2.30047
-8.34784 10.1231 -2.38135
-7.52124 9.12075 -2.42202
-2.86011 3.46836 -0.974379
-6.40215 7.76366 -2.54352
-5.89184 7.14483 -2.56468
-5.52429 6.69912 -2.61866
-5.1365 6.22886 -2.63723
-4.83178 5.85933 -2.6734
-2.89323 3.50853 -1.68497
-4.09885 4.97053 -2.60022
-3.05367 3.70309 -2.04619
-3.56069 4.31792 -2.55833
-2.94723 3.574 -2.23604
-2.85253 3.45916 -2.29317
-2.84873 3.45455 -2.42501
-2.81927 3.41884 -2.53719
-23.4171 28.5694 0.948444
-22.4684 27.4119 -1.56207
-15.3061 18.6738 -2.16182
-11.8937 14.5106 -2.10328
-10.4483 12.7472 -2.22559
-9.23164 11.2628 -2.30177
-8.3078 10.1357 -2.37838
-7.50283 9.15362 -2.42493
-2.83747 3.46178 -0.969768
-6.37908 7.78263 -2.54352
-5.86817 7.1593 -2.56358
-5.50439 6.71548 -2.61866
-5.11079 6.23528 -2.63339
-4.79055 5.84457 -2.65972
-4.50314 5.49393 -2.68307
-2.82879 3.45119 -1.7731
-3.96578 4.83835 -2.69453
-3.22126 3.93002 -2.31446
-2.91395 3.55509 -2.21809
-2.83666 3.46078 -2.28848
-2.84399 3.46973 -2.42991
-2.79058 3.40457 -2.51985
-23.413 28.7276 0.951229
-22.4245 27.5148 -1.56449
-15.2602 18.7242 -2.16275
-11.8557 14.5468 -2.10375
-10.4314 12.7993 -2.22977
-9.2039 11.2931 -2.30274
-8.29933 10.1832 -2.38431
-7.50566 9.20941 -2.43449
-6.91212 8.48113 -2.5016
-2.8468 3.49301 -1.08884
-5.84087 7.16672 -2.56027
-5.4627 6.70271 -2.60734
-2.82978 3.47212 -1.42271
-4.8122 5.90455 -2.68161
-4.48072 5.49782 -2.6787
-3.60962 4.42899 -2.29573
-3.96149 4.86073 -2.70104
-3.44668 4.22906 -2.49158
-2.91305 3.57429 -2.22527
-2.81248 3.4509 -2.27627
-2.82107 3.46144 -2.41815
-2.79736 3.43235 -2.53515
-22.3809 27.648 -1.56803
-15.2106 18.7902 -2.16461
-11.8186 14.6 -2.10584
-10.4001 12.8477 -2.23227
-9.18502 11.3466 -2.30761
-8.28777 10.2382 -2.39097
-7.47262 9.23121 -2.43366
-2.8077 3.46846 -0.96654
-6.32412 7.81242 -2.54048
-5.8207 7.19053 -2.56193
-5.45245 6.73562 -2.6133
-5.06784 6.26049 -2.63083
-4.78668 5.91317 -2.67819
-2.85189 3.52305 -1.67915
-3.64484 4.50261 -2.32888
-3.22457 3.98343 -2.19099
-3.65329 4.51305 -2.65758
-2.93604 3.627 -2.2531
-2.7788 3.43275 -2.25749
-2.80519 3.46536 -2.41423
-2.76756 3.41888 -2.51781
-22.3425 27.7587 -1.57092
-15.168 18.845 -2.1661
-11.7828 14.6391 -2.10677
-10.3692 12.8829 -2.23339
-9.1632 11.3845 -2.3102
-8.23943 10.2368 -2.38505
-7.45294 9.25966 -2.43574
-6.85652 8.51865 -2.50022
-6.31198 7.84211 -2.54453
-5.80542 7.21275 -2.56413
-5.43362 6.75082 -2.6133
-5.04558 6.26871 -2.62827
-4.75483 5.90748 -2.6693
-4.44471 5.52218 -2.67725
-3.94931 4.90669 -2.54009
-3.57544 4.44219 -2.44805
-3.69508 4.59083 -2.69865
-3.05589 3.79668 -2.35723
-2.79245 3.46939 -2.27721
-2.7802 3.45416 -2.40052
-2.75261 3.41989 -2.51271
-22.2976 27.8818 -1.57409
-15.1237 18.9112 -2.16833
-11.7628 14.7086 -2.11165
-10.3447 12.9355 -2.237
-9.15327 11.4456 -2.31701
-8.19987 10.2534 -2.38283
-7.42137 9.27997 -2.43491
-6.84309 8.55687 -2.50529
-6.25831 7.82564 -2.53237
-2.77129 3.46533 -1.18154
-5.40166 6.75444 -2.60794
-2.76795 3.46116 -1.4067
-4.73977 5.92679 -2.67135
-4.44596 5.5594 -2.68889
-4.17362 5.21886 -2.70043
-3.47474 4.34495 -2.38622
-3.4729 4.34265 -2.54121
-2.96916 3.71275 -2.29708
-2.77823 3.47401 -2.27439
-2.77369 3.46833 -2.40443
-2.74508 3.43255 -2.51577
-22.2334 27.9713 -1.57548
-15.0861 18.9794 -2.17111
-11.7512 14.7839 -2.11768
-10.3039 12.963 -2.23645
-9.11191 11.4634 -2.31506
-8.18653 10.2993 -2.38801
-7.39381 9.30195 -2.43491
-6.79467 8.54819 -2.49653
-6.23988 7.85023 -2.5344
-2.75263 3.463 -1.17768
-5.38634 6.77642 -2.61032
-5.02252 6.3187 -2.63659
-4.74204 5.96584 -2.68298
-4.4051 5.54194 -2.67361
-4.16271 5.237 -2.70351
-3.13214 3.94046 -2.15031
-2.9617 3.72603 -2.16215
-3.12049 3.92581 -2.42815
-2.7822 3.50021 -2.2866
-2.733 3.43832 -2.377
-2.73381 3.43934 -2.51475
-22.1937 28.092 -1.57875
-15.0408 19.0381 -2.17279
-11.6962 14.8047 -2.11559
-10.2875 13.0215 -2.24146
-9.06929 11.4796 -2.31279
-8.12548 10.2849 -2.37875
-7.3783 9.3392 -2.43906
-6.76806 8.56678 -2.49607
-6.22376 7.87782 -2.53744
-5.76118 7.2923 -2.57406
-5.3674 6.79387 -2.61092
-5.00962 6.34101 -2.63979
-4.72316 5.97841 -2.68229
-4.42098 5.59592 -2.69398
-3.31887 4.20091 -2.14542
-3.56896 4.51746 -2.47245
-3.14898 3.98587 -2.31361
-3.21851 4.07388 -2.51702
-2.78384 3.52369 -2.29693
-2.72603 3.45052 -2.37994
-2.69693 3.41369 -2.48924
-24.7424 31.5211 0.090805
-24.7666 31.5519 -0.840459
-22.1571 28.2276 -1.58266
-14.9957 19.1041 -2.17502
-11.6484 14.8398 -2.11536
-10.2563 13.0662 -2.24369
-9.03562 11.5111 -2.31344
-8.12468 10.3506 -2.38838
-7.35859 9.37464 -2.44239
-6.75193 8.60178 -2.50022
-2.75603 3.51111 -1.0777
-5.74299 7.31641 -2.57626
-2.73019 3.47818 -1.28895
-2.72239 3.46825 -1.39902
-4.68346 5.96661 -2.66998
-4.39532 5.59952 -2.68889
-4.12153 5.25071 -2.69734
-3.88078 4.94401 -2.70754
-2.93106 3.7341 -2.15616
-2.87906 3.66784 -2.2513
-2.74113 3.49213 -2.2697
-2.71087 3.45358 -2.37602
-2.69682 3.43567 -2.49945
-24.59 31.5191 1.95507
-24.6101 31.5449 1.0197
-22.0917 28.3168 -1.58406
-14.9524 19.1658 -2.17706
-11.6166 14.8899 -2.11768
-10.2199 13.0997 -2.24424
-9.00506 11.5426 -2.31441
-8.10965 10.3948 -2.39319
-7.34638 9.41649 -2.4478
-6.72399 8.61871 -2.4993
-6.17314 7.91264 -2.53643
-2.69743 3.45753 -1.16665
-5.32697 6.82803 -2.61151
-4.9673 6.36701 -2.63787
-4.68539 6.00567 -2.68161
-4.36837 5.59932 -2.68234
-4.10025 5.25564 -2.69349
-3.49409 4.47868 -2.43828
-2.69758 3.45772 -1.98503
-2.85827 3.66369 -2.24322
-2.71881 3.48494 -2.25937
-2.67809 3.43274 -2.35545
-2.67921 3.43417 -2.4923
-22.0603 28.44 -1.58769
-14.9086 19.22 -2.17855
-11.5652 14.9098 -2.11583
-10.1954 13.1439 -2.24702
-8.9607 11.5521 -2.31117
-8.08782 10.4268 -2.39542
-7.33085 9.45088 -2.45154
-6.70944 8.64975 -2.50299
-6.16881 7.95278 -2.54402
-5.69604 7.34329 -2.57406
-5.30554 6.83986 -2.61032
-4.94485 6.37487 -2.63531
-4.65363 5.99942 -2.67272
-4.363 5.62474 -2.68889
-4.08443 5.26562 -2.69272
-3.60588 4.64867 -2.52858
-2.97266 3.83234 -2.20494
-2.88527 3.71967 -2.27374
-2.72422 3.51205 -2.27251
-2.66636 3.43745 -2.35349
-2.66433 3.43484 -2.4872
-22.0147 28.5661 -1.59104
-17.7346 23.0122 -1.94078
-14.8603 19.2825 -2.1804
-11.528 14.9586 -2.11768
-10.171 13.1978 -2.25092
-8.93159 11.5895 -2.31312
-8.04302 10.4365 -2.39171
-7.30112 9.47386 -2.45154
-6.68817 8.67849 -2.50529
-6.13671 7.96293 -2.54098
-5.67764 7.36724 -2.57626
